ncols         302
nrows         63
xllcorner     324833.651685
xlrcorner     332828.796
yllcorner     5108900.35098
yulcorner     5110639.476
cellsize      26.514313645002
1518 1511 1497 1489 1482 1473 1454 1443 1433 1425 1418 1412 1416 1421 1429 1446 1454 1461 1466 1474 1478 1482 1501 1507 1518 1524 1531 1538 1551 1557 1563 1570 1583 1589 1595 1601 1615 1621 1625 1628 1632 1637 1639 1641 1643 1645 1645 1645 1647 1650 1652 1652 1653 1651 1649 1649 1650 1651 1653 1654 1653 1652 1648 1659 1653 1648 1638 1631 1625 1618 1607 1602 1598 1596 1594 1593 1594 1594 1595 1599 1602 1606 1610 1620 1626 1635 1645 1665 1675 1683 1691 1697 1706 1710 1715 1721 1737 1743 1746 1750 1761 1767 1772 1776 1784 1791 1796 1800 1802 1811 1816 1819 1822 1825 1827 1829 1832 1840 1844 1848 1852 1855 1860 1860 1862 1864 1869 1872 1875 1878 1884 1887 1889 1891 1895 1897 1898 1899 1901 1905 1908 1911 1912 1916 1919 1922 1932 1935 1936 1936 1937 1937 1937 1937 1937 1937 1936 1935 1933 1931 1928 1927 1926 1923 1916 1915 1916 1920 1932 1939 1943 1943 1944 1945 1944 1944 1946 1955 1963 1971 1980 1996 2002 2008 2015 2025 2030 2035 2026 2031 2039 2046 2054 2059 2070 2076 2084 2092 2103 2109 2113 2116 2121 2138 2147 2156 2164 2182 2194 2206 2222 2275 2309 2339 2359 2414 2449 2472 2485 2499 2533 2549 2561 2571 2578 2576 2573 2568 2554 2546 2530 2523 2524 2525 2526 2528 2531 2532 2527 2519 2509 2487 2475 2464 2454 2435 2428 2422 2416 2401 2392 2382 2372 2360 2338 2331 2325 2320 2305 2299 2294 2289 2279 2278 2278 2277 2277 2276 2275 2274 2273 2273 2301 2304 2308 2312 2313 2313 2311 2307 2306 2304 2303 2302 2300 2299 2300 2301 2306 2312 2318 2327 2354 2371 2391 2410 2441 2456 2469 2481 2493 2512
1525 1517 1501 1494 1486 1477 1458 1446 1434 1423 1414 1404 1404 1409 1416 1434 1454 1461 1466 1474 1478 1482 1488 1498 1504 1511 1518 1525 1538 1543 1548 1554 1565 1571 1576 1583 1598 1605 1610 1614 1621 1623 1624 1626 1629 1632 1631 1632 1633 1638 1640 1642 1642 1642 1642 1642 1643 1652 1653 1654 1653 1652 1648 1644 1637 1631 1621 1615 1609 1604 1595 1591 1589 1586 1585 1586 1588 1589 1592 1598 1602 1606 1611 1623 1629 1638 1649 1668 1676 1684 1691 1697 1707 1711 1716 1722 1735 1741 1746 1750 1761 1767 1772 1776 1782 1785 1789 1793 1795 1804 1809 1813 1815 1819 1820 1823 1826 1832 1835 1838 1840 1845 1846 1846 1847 1850 1854 1857 1860 1863 1868 1871 1873 1876 1882 1885 1887 1889 1893 1896 1908 1911 1912 1916 1919 1922 1923 1925 1925 1925 1924 1923 1922 1921 1921 1921 1918 1917 1914 1912 1910 1909 1907 1903 1897 1896 1899 1906 1925 1936 1941 1942 1943 1947 1949 1952 1956 1969 1977 1986 1995 2011 2002 2008 2015 2025 2030 2035 2040 2047 2057 2062 2068 2073 2085 2093 2103 2113 2119 2124 2130 2135 2154 2163 2172 2182 2193 2212 2226 2242 2262 2321 2353 2383 2411 2462 2478 2492 2505 2533 2548 2562 2573 2579 2578 2576 2573 2568 2554 2546 2537 2530 2525 2524 2525 2525 2524 2522 2514 2501 2490 2472 2459 2446 2436 2417 2409 2405 2401 2386 2377 2366 2355 2341 2315 2308 2303 2299 2288 2282 2277 2272 2263 2261 2259 2257 2277 2276 2275 2274 2273 2273 2275 2277 2280 2287 2290 2291 2291 2291 2291 2292 2292 2293 2294 2296 2299 2301 2310 2318 2327 2338 2371 2392 2411 2429 2457 2469 2481 2491 2509 2516
1532 1522 1505 1498 1490 1481 1462 1449 1436 1424 1407 1404 1404 1409 1416 1434 1442 1448 1453 1462 1466 1471 1476 1486 1493 1500 1507 1520 1525 1530 1534 1538 1548 1553 1559 1565 1580 1589 1596 1601 1608 1610 1611 1612 1615 1617 1616 1617 1620 1625 1628 1642 1642 1642 1642 1642 1643 1643 1643 1643 1642 1640 1635 1630 1623 1616 1605 1600 1595 1591 1585 1582 1579 1577 1578 1581 1583 1586 1590 1599 1603 1608 1613 1626 1633 1642 1652 1670 1678 1685 1691 1702 1707 1711 1716 1722 1735 1741 1746 1749 1758 1763 1767 1770 1776 1778 1782 1785 1791 1796 1801 1805 1809 1813 1816 1818 1820 1824 1826 1828 1829 1832 1833 1833 1835 1837 1842 1845 1848 1850 1855 1857 1859 1863 1882 1885 1887 1889 1893 1896 1899 1901 1903 1908 1911 1913 1914 1913 1912 1910 1909 1906 1905 1905 1904 1902 1900 1899 1898 1897 1896 1894 1891 1889 1885 1886 1891 1900 1924 1934 1941 1943 1949 1953 1958 1964 1956 1969 1977 1986 1995 2011 2015 2020 2028 2038 2043 2046 2052 2067 2070 2074 2081 2088 2106 2115 2122 2127 2136 2145 2157 2169 2194 2202 2210 2220 2232 2256 2272 2291 2310 2366 2395 2419 2445 2477 2488 2500 2505 2533 2548 2562 2573 2579 2585 2583 2579 2572 2554 2545 2536 2529 2521 2518 2516 2515 2511 2507 2495 2477 2467 2452 2438 2425 2415 2398 2390 2387 2386 2371 2361 2348 2334 2303 2293 2289 2286 2281 2272 2267 2277 2272 2263 2261 2259 2257 2255 2253 2251 2251 2247 2245 2246 2249 2254 2263 2267 2270 2271 2275 2277 2280 2283 2288 2292 2297 2301 2311 2320 2330 2343 2358 2394 2414 2432 2447 2470 2481 2490 2497 2509 2513
1539 1528 1510 1502 1490 1481 1462 1449 1436 1424 1404 1398 1396 1398 1404 1422 1429 1435 1441 1450 1455 1460 1465 1475 1482 1489 1496 1509 1514 1518 1522 1525 1533 1538 1543 1550 1566 1575 1583 1588 1595 1597 1599 1600 1603 1617 1616 1617 1620 1625 1628 1630 1631 1634 1634 1635 1637 1637 1637 1636 1634 1629 1625 1619 1612 1604 1591 1586 1582 1579 1574 1571 1569 1568 1572 1576 1580 1584 1594 1600 1605 1610 1616 1629 1637 1645 1654 1670 1678 1685 1691 1702 1707 1711 1716 1723 1734 1740 1745 1749 1755 1759 1762 1765 1770 1772 1776 1778 1782 1786 1791 1796 1801 1808 1811 1813 1814 1816 1817 1818 1819 1820 1821 1821 1823 1829 1832 1835 1848 1850 1855 1857 1859 1863 1870 1874 1877 1880 1885 1888 1890 1892 1896 1899 1901 1902 1901 1898 1896 1894 1892 1889 1888 1887 1887 1884 1884 1884 1885 1886 1886 1884 1883 1882 1883 1887 1893 1903 1928 1937 1941 1943 1949 1953 1958 1964 1971 1985 1993 2001 2009 2022 2026 2032 2041 2052 2056 2059 2064 2078 2083 2089 2100 2114 2133 2138 2140 2145 2169 2186 2203 2219 2243 2251 2261 2274 2295 2306 2322 2341 2356 2408 2395 2419 2445 2477 2488 2500 2512 2536 2549 2560 2569 2575 2577 2576 2571 2562 2546 2538 2531 2524 2512 2507 2503 2499 2488 2480 2464 2449 2440 2428 2415 2404 2394 2376 2368 2364 2363 2349 2336 2321 2304 2279 2293 2289 2286 2281 2272 2267 2261 2255 2244 2241 2238 2235 2231 2229 2227 2226 2222 2221 2222 2226 2232 2242 2247 2251 2254 2261 2265 2270 2275 2286 2292 2300 2308 2324 2336 2349 2364 2382 2415 2431 2445 2458 2477 2481 2490 2497 2509 2513
1539 1528 1510 1502 1493 1484 1463 1452 1439 1426 1402 1394 1390 1391 1402 1410 1417 1423 1429 1438 1443 1449 1453 1464 1471 1478 1485 1498 1503 1507 1511 1518 1522 1526 1531 1537 1552 1562 1570 1576 1595 1597 1599 1600 1603 1603 1602 1603 1608 1611 1615 1617 1619 1623 1625 1628 1630 1632 1632 1630 1627 1620 1615 1609 1601 1592 1578 1574 1571 1568 1563 1561 1560 1561 1567 1572 1577 1583 1594 1600 1606 1610 1616 1629 1637 1645 1654 1671 1678 1684 1689 1700 1706 1710 1716 1729 1734 1739 1744 1747 1752 1754 1757 1759 1765 1767 1770 1772 1774 1777 1781 1786 1795 1800 1804 1807 1808 1808 1807 1807 1807 1809 1821 1821 1823 1829 1832 1835 1838 1842 1844 1846 1849 1853 1862 1866 1869 1872 1877 1880 1881 1882 1885 1888 1888 1888 1886 1881 1879 1877 1875 1873 1871 1871 1871 1871 1872 1873 1875 1879 1879 1880 1881 1882 1883 1887 1893 1903 1928 1937 1943 1948 1957 1964 1972 1980 1995 2002 2009 2015 2020 2034 2041 2048 2057 2070 2074 2079 2084 2104 2114 2124 2137 2160 2162 2164 2169 2181 2219 2235 2249 2263 2288 2298 2311 2328 2295 2306 2322 2341 2377 2408 2431 2447 2462 2482 2490 2498 2507 2526 2537 2546 2553 2558 2558 2558 2553 2545 2533 2527 2521 2513 2501 2495 2490 2479 2455 2445 2432 2423 2415 2406 2393 2382 2372 2354 2346 2339 2363 2349 2336 2321 2304 2279 2272 2270 2269 2261 2255 2249 2242 2235 2223 2219 2215 2212 2207 2205 2203 2202 2201 2202 2205 2209 2219 2224 2230 2235 2241 2251 2257 2263 2270 2286 2295 2306 2317 2341 2356 2370 2385 2399 2415 2431 2445 2458 2477 2485 2492 2496 2503 2506
1545 1521 1512 1503 1494 1484 1463 1452 1439 1426 1399 1390 1385 1385 1393 1399 1406 1412 1417 1426 1431 1436 1441 1451 1458 1465 1472 1486 1491 1497 1501 1509 1513 1517 1531 1537 1552 1562 1570 1576 1583 1585 1586 1589 1592 1592 1591 1592 1595 1598 1602 1604 1606 1612 1615 1619 1623 1626 1625 1623 1619 1610 1604 1596 1588 1572 1567 1564 1561 1557 1553 1553 1553 1555 1563 1572 1577 1583 1594 1600 1606 1611 1625 1632 1639 1647 1655 1670 1677 1682 1688 1699 1704 1709 1715 1728 1732 1737 1741 1744 1747 1749 1751 1753 1759 1763 1766 1766 1766 1768 1771 1775 1784 1789 1793 1796 1808 1808 1807 1807 1807 1809 1809 1810 1813 1819 1822 1825 1828 1833 1835 1838 1842 1845 1854 1858 1861 1863 1867 1868 1869 1868 1870 1872 1872 1871 1868 1865 1864 1863 1862 1860 1859 1859 1859 1861 1863 1866 1875 1879 1879 1880 1881 1885 1889 1894 1902 1912 1936 1944 1951 1957 1970 1978 1987 1994 2010 2017 2023 2028 2033 2050 2060 2069 2077 2093 2100 2106 2116 2142 2157 2170 2184 2200 2197 2199 2211 2224 2262 2276 2249 2263 2288 2298 2311 2328 2344 2350 2362 2378 2410 2430 2445 2456 2466 2481 2486 2489 2493 2507 2515 2523 2529 2533 2534 2534 2532 2523 2519 2512 2505 2498 2488 2481 2471 2457 2431 2422 2411 2402 2390 2382 2393 2382 2362 2354 2346 2339 2335 2320 2305 2288 2273 2255 2250 2249 2250 2241 2234 2227 2220 2209 2205 2200 2196 2193 2187 2185 2184 2184 2186 2188 2192 2196 2206 2212 2219 2226 2232 2245 2252 2260 2269 2288 2300 2306 2317 2341 2356 2370 2385 2415 2427 2439 2450 2461 2477 2482 2486 2489 2493 2495
1549 1522 1511 1500 1490 1481 1461 1449 1437 1423 1395 1386 1380 1378 1383 1389 1395 1401 1411 1415 1419 1425 1429 1439 1445 1452 1459 1473 1491 1497 1501 1509 1513 1517 1521 1532 1540 1548 1557 1564 1572 1574 1576 1579 1583 1583 1582 1583 1586 1588 1590 1592 1598 1602 1606 1611 1614 1617 1616 1614 1609 1597 1590 1581 1573 1559 1555 1552 1550 1557 1553 1553 1553 1555 1563 1568 1574 1580 1593 1599 1605 1611 1625 1632 1639 1647 1655 1669 1675 1681 1686 1697 1703 1708 1713 1725 1730 1733 1736 1740 1741 1742 1743 1746 1753 1757 1759 1759 1758 1759 1761 1775 1784 1789 1793 1796 1798 1798 1797 1796 1795 1797 1798 1800 1803 1810 1813 1817 1820 1826 1829 1832 1836 1842 1845 1848 1851 1852 1854 1853 1852 1851 1851 1852 1853 1853 1853 1852 1852 1851 1851 1851 1859 1859 1859 1861 1863 1866 1868 1874 1878 1881 1884 1893 1899 1906 1914 1925 1945 1953 1961 1969 1983 1991 1999 2006 2021 2029 2037 2044 2062 2073 2085 2094 2103 2122 2132 2143 2156 2179 2191 2207 2227 2241 2197 2199 2211 2242 2262 2276 2285 2297 2324 2339 2349 2360 2374 2381 2387 2397 2420 2430 2440 2450 2464 2469 2471 2472 2472 2481 2488 2494 2500 2506 2509 2510 2511 2506 2501 2494 2487 2480 2466 2457 2447 2436 2431 2422 2411 2402 2390 2382 2372 2361 2342 2333 2324 2317 2309 2289 2276 2261 2250 2236 2231 2229 2228 2216 2210 2203 2197 2190 2188 2185 2182 2179 2174 2173 2173 2173 2177 2180 2184 2188 2200 2206 2214 2222 2235 2245 2252 2260 2269 2288 2300 2312 2326 2357 2373 2387 2400 2421 2430 2439 2449 2465 2470 2473 2476 2477 2479 2481
1549 1521 1508 1495 1485 1468 1458 1446 1433 1420 1392 1381 1374 1370 1374 1379 1385 1391 1401 1405 1409 1414 1434 1439 1445 1452 1459 1473 1479 1485 1490 1502 1506 1510 1514 1524 1530 1537 1544 1552 1561 1564 1566 1569 1573 1573 1574 1575 1577 1579 1580 1582 1588 1592 1597 1602 1605 1607 1606 1603 1597 1581 1573 1581 1573 1559 1555 1552 1550 1546 1546 1547 1548 1551 1560 1566 1572 1578 1591 1598 1604 1610 1622 1630 1638 1646 1660 1666 1672 1679 1684 1695 1701 1706 1711 1721 1725 1728 1729 1732 1733 1734 1735 1742 1746 1757 1759 1759 1758 1759 1761 1763 1771 1775 1778 1781 1785 1785 1785 1784 1784 1786 1789 1791 1794 1801 1804 1808 1812 1819 1823 1826 1828 1832 1834 1836 1838 1839 1837 1835 1834 1833 1834 1836 1838 1839 1853 1852 1852 1851 1851 1851 1851 1851 1852 1855 1859 1862 1866 1876 1881 1887 1892 1904 1911 1919 1928 1948 1957 1964 1972 1980 1994 2001 2009 2017 2033 2043 2054 2066 2090 2104 2116 2126 2149 2162 2176 2188 2156 2179 2191 2207 2227 2241 2237 2240 2251 2276 2293 2306 2316 2328 2350 2365 2372 2373 2384 2391 2395 2399 2412 2418 2425 2434 2443 2445 2446 2447 2448 2456 2462 2468 2474 2483 2487 2490 2493 2489 2484 2477 2487 2474 2466 2457 2447 2436 2415 2406 2396 2386 2369 2360 2351 2341 2321 2312 2303 2296 2277 2265 2254 2244 2236 2223 2217 2212 2206 2193 2188 2182 2178 2174 2173 2173 2173 2170 2170 2169 2169 2170 2174 2177 2181 2188 2200 2206 2214 2222 2235 2243 2251 2260 2270 2292 2305 2320 2336 2370 2384 2397 2406 2422 2429 2436 2443 2454 2458 2460 2461 2462 2463 2465
1548 1517 1503 1490 1479 1462 1452 1440 1427 1414 1387 1375 1368 1364 1366 1371 1385 1391 1401 1405 1409 1414 1423 1428 1434 1440 1447 1460 1466 1473 1479 1493 1499 1504 1509 1518 1523 1528 1533 1544 1548 1552 1555 1558 1564 1566 1567 1568 1571 1572 1573 1575 1580 1583 1588 1592 1596 1607 1606 1603 1597 1581 1573 1565 1557 1546 1543 1540 1538 1538 1540 1542 1544 1552 1558 1564 1571 1577 1590 1597 1603 1608 1620 1627 1635 1643 1657 1663 1669 1675 1681 1692 1697 1701 1706 1715 1718 1720 1720 1732 1733 1734 1735 1742 1746 1749 1750 1750 1749 1749 1750 1752 1757 1760 1764 1766 1771 1773 1774 1774 1775 1778 1780 1783 1786 1792 1795 1799 1803 1811 1813 1815 1817 1819 1821 1822 1822 1821 1820 1820 1834 1833 1834 1836 1838 1839 1841 1841 1841 1841 1842 1843 1845 1847 1852 1856 1861 1866 1871 1883 1889 1896 1902 1915 1923 1931 1941 1959 1966 1974 1980 1988 2004 2012 2020 2028 2048 2061 2075 2090 2120 2134 2116 2126 2149 2162 2176 2188 2200 2217 2227 2241 2256 2269 2271 2278 2287 2311 2323 2332 2342 2356 2362 2372 2377 2375 2380 2386 2389 2391 2395 2398 2402 2408 2415 2417 2419 2422 2431 2436 2442 2449 2456 2467 2487 2490 2493 2489 2484 2477 2470 2453 2444 2435 2426 2409 2400 2391 2381 2371 2351 2341 2331 2323 2302 2293 2285 2277 2261 2250 2241 2233 2225 2212 2205 2197 2189 2176 2171 2166 2164 2164 2164 2166 2167 2170 2170 2169 2169 2170 2174 2177 2181 2186 2197 2204 2211 2219 2233 2241 2250 2260 2282 2295 2311 2327 2344 2374 2387 2398 2405 2417 2422 2427 2431 2438 2441 2443 2443 2445 2447 2450
1543 1512 1497 1483 1472 1452 1442 1431 1420 1394 1382 1375 1368 1364 1366 1371 1376 1382 1392 1397 1402 1405 1413 1418 1424 1429 1442 1448 1454 1461 1469 1484 1491 1497 1504 1514 1517 1521 1524 1531 1534 1538 1542 1552 1556 1560 1562 1563 1565 1566 1567 1568 1580 1583 1588 1592 1596 1596 1594 1590 1583 1565 1556 1549 1543 1534 1531 1530 1530 1532 1535 1539 1541 1550 1556 1563 1570 1576 1589 1595 1601 1606 1619 1626 1633 1640 1652 1658 1664 1670 1680 1685 1690 1701 1706 1715 1718 1720 1720 1722 1723 1724 1726 1732 1736 1739 1740 1741 1740 1739 1738 1739 1743 1747 1750 1752 1758 1761 1763 1765 1767 1770 1773 1776 1782 1785 1788 1791 1795 1801 1802 1804 1805 1805 1821 1822 1822 1821 1820 1820 1820 1820 1822 1824 1826 1828 1830 1831 1832 1834 1838 1840 1844 1848 1857 1863 1869 1875 1882 1894 1900 1906 1912 1925 1933 1942 1950 1966 1973 1980 1987 2004 2013 2021 2031 2041 2048 2061 2075 2090 2120 2134 2147 2161 2195 2210 2223 2234 2251 2257 2264 2273 2282 2295 2304 2314 2325 2345 2352 2354 2359 2365 2366 2370 2371 2369 2372 2374 2376 2377 2375 2376 2378 2381 2389 2394 2399 2405 2431 2436 2442 2449 2456 2467 2472 2476 2479 2475 2470 2463 2456 2438 2428 2420 2412 2396 2387 2378 2368 2357 2334 2323 2314 2306 2288 2278 2269 2261 2245 2237 2228 2221 2207 2200 2191 2183 2175 2163 2158 2155 2154 2164 2164 2166 2167 2170 2170 2170 2171 2173 2174 2177 2180 2185 2195 2202 2209 2216 2230 2238 2247 2258 2281 2295 2312 2328 2357 2369 2380 2390 2397 2406 2409 2412 2414 2418 2421 2423 2424 2429 2432 2436
1537 1507 1491 1477 1464 1452 1442 1431 1420 1394 1382 1371 1363 1357 1359 1363 1368 1374 1385 1390 1394 1397 1405 1410 1415 1420 1432 1437 1444 1451 1458 1473 1481 1489 1496 1507 1511 1514 1516 1521 1524 1527 1531 1540 1545 1549 1562 1563 1565 1566 1567 1568 1571 1574 1577 1580 1582 1581 1579 1574 1559 1550 1542 1535 1530 1524 1523 1523 1524 1528 1532 1536 1540 1549 1556 1562 1569 1582 1588 1594 1599 1604 1617 1624 1631 1637 1647 1658 1664 1670 1680 1685 1690 1694 1697 1705 1707 1708 1709 1710 1711 1713 1715 1722 1725 1728 1730 1732 1731 1729 1727 1727 1730 1732 1736 1739 1746 1749 1752 1755 1759 1762 1766 1769 1774 1777 1780 1784 1787 1801 1802 1804 1805 1805 1806 1806 1806 1807 1808 1809 1810 1811 1812 1814 1815 1817 1821 1824 1827 1830 1838 1843 1849 1855 1868 1875 1881 1888 1900 1905 1910 1915 1921 1933 1941 1949 1956 1972 1980 1987 1987 2004 2013 2021 2031 2041 2066 2080 2095 2111 2143 2157 2171 2190 2234 2251 2264 2274 2289 2294 2299 2306 2315 2328 2335 2344 2351 2362 2363 2361 2361 2361 2361 2361 2359 2357 2358 2358 2359 2359 2358 2359 2378 2381 2389 2394 2399 2405 2417 2424 2431 2438 2453 2458 2463 2468 2472 2467 2461 2455 2447 2427 2417 2409 2400 2385 2377 2368 2358 2334 2322 2312 2303 2296 2277 2266 2257 2247 2229 2221 2214 2207 2194 2187 2178 2183 2175 2163 2158 2155 2154 2157 2160 2162 2165 2169 2171 2173 2174 2175 2177 2178 2180 2183 2192 2199 2205 2212 2226 2234 2243 2253 2277 2291 2306 2320 2347 2358 2367 2376 2383 2390 2392 2394 2396 2399 2401 2423 2424 2429 2432 2436
1537 1507 1491 1477 1464 1443 1433 1423 1413 1389 1377 1367 1358 1351 1352 1355 1360 1366 1377 1382 1386 1390 1398 1402 1407 1411 1422 1427 1434 1441 1453 1460 1468 1476 1484 1496 1501 1505 1507 1512 1524 1527 1531 1540 1545 1549 1553 1556 1556 1557 1558 1559 1562 1563 1565 1566 1568 1566 1562 1557 1543 1536 1530 1525 1521 1518 1518 1519 1521 1525 1530 1534 1538 1549 1556 1563 1570 1582 1588 1593 1598 1604 1617 1624 1631 1637 1647 1652 1657 1662 1671 1675 1679 1682 1689 1691 1693 1694 1695 1698 1700 1702 1704 1711 1713 1715 1718 1722 1723 1721 1719 1717 1717 1719 1722 1725 1734 1737 1741 1745 1750 1754 1758 1769 1774 1777 1780 1784 1789 1791 1791 1792 1792 1790 1790 1791 1792 1795 1797 1798 1799 1802 1803 1805 1807 1810 1816 1820 1825 1830 1843 1850 1858 1866 1881 1888 1894 1901 1911 1915 1919 1923 1929 1940 1941 1949 1956 1972 1980 1987 1995 2012 2021 2030 2042 2067 2083 2098 2113 2129 2161 2178 2197 2218 2265 2285 2300 2310 2322 2326 2330 2335 2345 2348 2352 2355 2357 2360 2357 2354 2352 2348 2346 2344 2343 2342 2358 2358 2359 2358 2358 2359 2362 2365 2375 2382 2389 2396 2411 2419 2427 2435 2450 2456 2461 2466 2469 2465 2459 2451 2442 2421 2411 2402 2393 2376 2368 2360 2350 2327 2316 2307 2300 2293 2270 2258 2248 2237 2218 2221 2214 2207 2194 2187 2178 2170 2158 2153 2148 2147 2147 2153 2156 2159 2163 2168 2171 2174 2176 2178 2179 2179 2179 2183 2187 2193 2200 2207 2221 2229 2238 2247 2270 2284 2297 2310 2334 2344 2352 2359 2369 2390 2392 2394 2396 2399 2401 2404 2406 2414 2419 2424
1518 1503 1488 1473 1459 1436 1426 1416 1406 1384 1373 1362 1354 1346 1346 1349 1354 1364 1369 1373 1378 1382 1391 1395 1399 1403 1412 1418 1424 1429 1440 1446 1453 1460 1484 1496 1501 1505 1507 1512 1514 1517 1520 1527 1531 1535 1539 1542 1544 1545 1546 1547 1550 1552 1553 1554 1553 1550 1546 1540 1529 1525 1521 1517 1514 1515 1516 1517 1518 1524 1528 1532 1537 1549 1556 1563 1570 1582 1588 1593 1598 1608 1614 1620 1626 1631 1638 1642 1646 1651 1658 1661 1664 1667 1672 1675 1676 1677 1681 1684 1687 1689 1692 1698 1700 1703 1706 1711 1713 1713 1710 1707 1706 1707 1709 1713 1722 1737 1741 1745 1750 1754 1758 1761 1765 1767 1770 1774 1777 1778 1778 1779 1779 1777 1777 1778 1779 1783 1785 1787 1789 1794 1797 1799 1802 1811 1816 1821 1827 1835 1851 1860 1869 1877 1892 1899 1905 1910 1911 1915 1919 1923 1934 1940 1947 1955 1962 1979 1987 1996 2006 2023 2032 2044 2057 2085 2098 2116 2136 2170 2189 2212 2238 2260 2301 2319 2330 2336 2343 2346 2348 2350 2352 2351 2350 2349 2347 2345 2341 2336 2352 2348 2346 2344 2343 2342 2342 2343 2343 2346 2348 2350 2354 2359 2371 2379 2387 2395 2412 2421 2429 2437 2452 2458 2463 2467 2470 2466 2459 2451 2442 2420 2410 2400 2390 2372 2363 2354 2345 2323 2313 2306 2300 2282 2270 2258 2248 2237 2218 2209 2201 2194 2180 2173 2165 2158 2147 2144 2141 2141 2146 2149 2154 2158 2162 2168 2170 2172 2175 2177 2178 2178 2176 2177 2181 2186 2192 2199 2215 2223 2231 2240 2263 2275 2288 2310 2334 2344 2352 2359 2369 2372 2374 2376 2378 2383 2385 2388 2391 2401 2407 2414
1515 1501 1486 1470 1455 1430 1420 1410 1400 1378 1368 1358 1351 1342 1341 1343 1346 1355 1359 1364 1369 1374 1383 1387 1391 1394 1404 1409 1424 1429 1440 1446 1453 1460 1475 1481 1487 1491 1494 1499 1501 1503 1506 1512 1515 1519 1521 1526 1527 1529 1530 1535 1537 1539 1540 1541 1539 1536 1531 1527 1518 1514 1511 1510 1508 1509 1511 1513 1519 1523 1528 1532 1537 1549 1556 1564 1571 1583 1588 1592 1596 1605 1610 1615 1619 1621 1626 1629 1632 1636 1643 1646 1648 1650 1655 1657 1659 1661 1667 1670 1673 1676 1679 1685 1688 1691 1695 1701 1702 1703 1701 1707 1706 1707 1709 1717 1722 1726 1730 1734 1741 1745 1748 1751 1755 1756 1758 1761 1764 1765 1766 1766 1767 1766 1766 1766 1767 1772 1774 1778 1781 1789 1793 1798 1802 1813 1820 1826 1834 1852 1860 1869 1878 1877 1892 1899 1905 1910 1918 1921 1925 1929 1941 1947 1954 1963 1970 1989 1998 2008 2019 2039 2051 2065 2078 2101 2111 2135 2164 2208 2231 2258 2285 2285 2324 2332 2338 2340 2344 2345 2346 2348 2344 2339 2350 2349 2347 2345 2341 2336 2333 2331 2329 2327 2326 2328 2329 2331 2333 2339 2342 2346 2351 2365 2372 2381 2390 2399 2418 2427 2436 2444 2459 2464 2468 2470 2471 2467 2461 2454 2434 2423 2413 2401 2391 2373 2364 2354 2345 2323 2313 2306 2300 2279 2267 2255 2243 2231 2210 2201 2193 2185 2169 2161 2154 2147 2137 2135 2134 2134 2140 2145 2150 2155 2159 2165 2166 2167 2168 2171 2172 2172 2170 2169 2172 2176 2183 2199 2207 2223 2231 2240 2263 2275 2288 2300 2321 2329 2335 2341 2350 2354 2357 2360 2366 2370 2373 2377 2381 2391 2398 2404
1509 1496 1482 1467 1437 1424 1414 1404 1394 1374 1364 1355 1348 1338 1335 1336 1339 1347 1351 1356 1361 1371 1375 1387 1391 1394 1404 1409 1414 1418 1427 1432 1438 1444 1457 1464 1469 1474 1482 1484 1486 1488 1491 1495 1498 1500 1503 1507 1509 1511 1513 1519 1522 1525 1527 1528 1526 1523 1520 1516 1508 1505 1503 1501 1508 1509 1511 1513 1519 1523 1528 1532 1537 1550 1557 1564 1571 1583 1588 1591 1593 1599 1603 1606 1607 1610 1611 1613 1617 1620 1627 1630 1632 1634 1638 1641 1644 1647 1654 1658 1661 1664 1670 1673 1676 1691 1695 1701 1702 1703 1701 1697 1696 1697 1698 1706 1711 1716 1720 1728 1732 1736 1739 1741 1744 1745 1747 1749 1753 1754 1754 1755 1756 1757 1757 1758 1759 1764 1768 1773 1778 1790 1795 1801 1807 1819 1827 1826 1834 1852 1860 1869 1878 1886 1900 1906 1911 1915 1922 1926 1931 1936 1949 1956 1964 1973 1992 2003 2015 2027 2038 2062 2076 2091 2101 2115 2132 2165 2193 2243 2266 2286 2287 2312 2314 2317 2318 2318 2320 2345 2346 2348 2344 2339 2334 2331 2326 2323 2318 2315 2314 2313 2312 2312 2312 2316 2319 2322 2326 2335 2340 2347 2354 2370 2379 2387 2397 2408 2428 2437 2446 2453 2465 2470 2472 2473 2473 2469 2464 2457 2439 2423 2413 2401 2391 2373 2364 2356 2345 2322 2314 2309 2302 2278 2265 2254 2242 2218 2208 2198 2188 2178 2160 2152 2144 2137 2127 2124 2123 2124 2130 2135 2140 2145 2152 2154 2156 2157 2158 2158 2158 2157 2156 2169 2172 2176 2183 2199 2207 2216 2224 2243 2254 2266 2278 2290 2308 2315 2319 2323 2332 2336 2341 2346 2355 2359 2364 2368 2373 2384 2390 2397
1500 1489 1476 1461 1432 1420 1409 1399 1380 1370 1361 1352 1345 1333 1329 1329 1332 1347 1351 1356 1361 1371 1375 1379 1382 1386 1395 1400 1404 1408 1417 1421 1425 1430 1441 1446 1451 1456 1465 1468 1470 1473 1475 1479 1481 1483 1485 1489 1491 1494 1497 1503 1507 1510 1513 1515 1514 1513 1520 1516 1508 1505 1503 1501 1501 1502 1505 1508 1516 1522 1527 1532 1544 1550 1557 1564 1570 1581 1585 1588 1589 1591 1592 1593 1593 1594 1595 1597 1599 1603 1611 1614 1616 1618 1623 1626 1629 1633 1642 1658 1661 1664 1670 1673 1676 1681 1685 1690 1692 1692 1691 1688 1688 1689 1690 1698 1703 1708 1713 1721 1724 1727 1729 1730 1734 1736 1738 1741 1743 1744 1745 1746 1750 1751 1752 1753 1758 1763 1768 1774 1781 1790 1795 1801 1807 1819 1827 1834 1842 1859 1867 1876 1884 1900 1906 1912 1915 1918 1927 1933 1940 1946 1960 1969 1980 1990 2012 2025 2037 2049 2060 2085 2105 2125 2133 2145 2170 2202 2223 2258 2272 2280 2285 2312 2314 2317 2318 2318 2320 2321 2323 2324 2320 2315 2311 2307 2304 2301 2298 2296 2297 2297 2297 2299 2301 2308 2312 2317 2323 2336 2343 2352 2361 2380 2389 2398 2409 2430 2440 2449 2456 2463 2472 2475 2476 2473 2473 2469 2464 2457 2439 2429 2418 2407 2394 2386 2378 2370 2354 2319 2315 2310 2303 2278 2266 2254 2243 2220 2208 2196 2184 2173 2154 2145 2136 2128 2116 2111 2110 2111 2116 2120 2124 2128 2135 2137 2139 2157 2158 2158 2158 2157 2156 2157 2160 2166 2174 2191 2199 2207 2216 2235 2246 2257 2268 2278 2295 2301 2305 2309 2317 2321 2327 2333 2344 2350 2355 2361 2371 2377 2383 2389
1485 1476 1465 1452 1426 1415 1405 1396 1377 1367 1357 1352 1345 1333 1329 1329 1332 1340 1344 1349 1353 1362 1367 1371 1375 1383 1387 1391 1396 1400 1409 1412 1416 1419 1426 1431 1435 1440 1448 1452 1456 1459 1464 1466 1468 1470 1472 1475 1477 1480 1482 1489 1507 1510 1513 1515 1514 1513 1510 1507 1501 1498 1495 1494 1494 1496 1499 1503 1513 1519 1525 1531 1543 1550 1556 1562 1568 1577 1579 1581 1582 1581 1581 1579 1578 1578 1578 1579 1581 1588 1593 1597 1600 1618 1623 1626 1629 1633 1642 1646 1650 1653 1660 1662 1666 1670 1676 1678 1680 1681 1681 1680 1680 1682 1684 1690 1695 1700 1705 1712 1715 1717 1719 1723 1726 1728 1732 1735 1736 1737 1739 1742 1747 1749 1751 1753 1758 1763 1768 1774 1781 1796 1803 1809 1815 1828 1835 1842 1850 1865 1873 1882 1890 1904 1911 1916 1920 1924 1938 1947 1955 1962 1978 1989 2001 2013 2037 2050 2060 2073 2102 2117 2140 2161 2172 2186 2201 2202 2223 2258 2272 2280 2285 2281 2283 2285 2284 2284 2284 2286 2290 2291 2289 2288 2286 2284 2282 2282 2280 2280 2283 2284 2286 2289 2298 2304 2310 2317 2325 2341 2351 2361 2371 2391 2401 2411 2421 2441 2450 2449 2456 2463 2472 2475 2476 2476 2474 2470 2466 2460 2445 2436 2427 2421 2415 2409 2400 2391 2368 2317 2313 2308 2302 2279 2267 2256 2245 2222 2210 2196 2183 2160 2149 2139 2129 2119 2103 2099 2097 2097 2100 2120 2124 2128 2135 2137 2139 2140 2140 2139 2137 2135 2136 2142 2148 2155 2163 2182 2190 2198 2206 2225 2235 2245 2255 2274 2282 2288 2293 2297 2304 2308 2314 2320 2334 2340 2345 2351 2363 2369 2374 2379
1464 1457 1449 1439 1419 1415 1405 1396 1377 1367 1357 1348 1335 1329 1324 1323 1325 1333 1338 1342 1346 1354 1358 1363 1367 1375 1379 1384 1388 1398 1402 1406 1409 1411 1416 1419 1422 1426 1434 1438 1442 1446 1453 1456 1458 1460 1472 1475 1477 1480 1482 1489 1493 1496 1499 1503 1504 1503 1501 1497 1494 1491 1489 1487 1488 1490 1494 1499 1511 1517 1523 1529 1541 1547 1553 1559 1567 1570 1572 1572 1572 1570 1568 1566 1565 1563 1563 1579 1581 1588 1593 1597 1600 1604 1608 1611 1615 1619 1629 1633 1638 1642 1649 1651 1654 1657 1662 1664 1665 1667 1669 1670 1671 1673 1676 1681 1685 1690 1694 1701 1704 1708 1710 1717 1720 1723 1727 1730 1732 1737 1739 1742 1747 1749 1751 1754 1761 1766 1773 1780 1799 1807 1813 1818 1823 1836 1843 1850 1857 1872 1879 1886 1893 1909 1917 1925 1931 1949 1958 1967 1975 1983 2001 2014 2027 2040 2063 2072 2081 2098 2141 2117 2140 2161 2177 2186 2201 2217 2229 2240 2244 2247 2249 2248 2250 2251 2252 2256 2255 2258 2261 2263 2264 2264 2264 2263 2263 2264 2265 2267 2272 2275 2279 2284 2297 2305 2313 2322 2332 2351 2361 2372 2382 2391 2401 2411 2421 2441 2450 2459 2466 2475 2477 2478 2478 2478 2473 2470 2466 2461 2449 2442 2437 2435 2433 2427 2417 2404 2340 2320 2313 2306 2300 2280 2268 2256 2245 2222 2209 2196 2183 2158 2145 2133 2122 2110 2103 2099 2097 2097 2100 2103 2106 2109 2115 2116 2117 2117 2117 2116 2115 2115 2117 2128 2135 2143 2152 2172 2180 2188 2195 2213 2223 2231 2240 2258 2267 2273 2279 2284 2292 2296 2301 2307 2322 2328 2334 2340 2363 2369 2374 2379
1464 1457 1449 1439 1419 1409 1401 1392 1374 1364 1354 1345 1330 1324 1317 1315 1317 1326 1330 1335 1339 1346 1351 1355 1359 1367 1372 1377 1382 1392 1396 1400 1402 1405 1408 1410 1413 1415 1422 1426 1442 1446 1453 1456 1458 1460 1464 1465 1467 1469 1472 1478 1481 1485 1488 1493 1494 1494 1493 1490 1487 1484 1482 1481 1483 1486 1490 1495 1507 1513 1519 1525 1537 1543 1549 1553 1560 1562 1562 1562 1561 1557 1568 1566 1565 1563 1563 1563 1563 1569 1575 1580 1584 1590 1593 1597 1601 1605 1615 1620 1625 1630 1636 1638 1640 1643 1647 1649 1651 1653 1659 1660 1661 1663 1666 1671 1675 1679 1683 1691 1695 1698 1702 1717 1720 1723 1727 1731 1732 1734 1736 1739 1746 1750 1753 1757 1767 1774 1782 1790 1809 1816 1821 1826 1838 1844 1851 1857 1864 1876 1882 1889 1897 1917 1929 1940 1951 1975 1986 1993 1998 2006 2027 2040 2053 2040 2063 2072 2081 2098 2141 2155 2167 2178 2191 2195 2198 2203 2208 2204 2205 2209 2213 2222 2224 2226 2229 2234 2235 2237 2239 2241 2241 2242 2242 2242 2247 2250 2253 2256 2265 2270 2276 2283 2301 2311 2321 2322 2342 2351 2361 2372 2382 2403 2413 2423 2432 2450 2459 2467 2473 2480 2481 2481 2480 2478 2472 2469 2465 2461 2453 2448 2445 2445 2443 2435 2424 2405 2344 2324 2313 2304 2298 2279 2266 2255 2244 2219 2206 2196 2183 2158 2145 2133 2122 2101 2093 2088 2085 2083 2083 2084 2087 2088 2090 2090 2090 2091 2092 2093 2094 2096 2106 2113 2121 2130 2140 2160 2168 2175 2183 2200 2208 2215 2223 2240 2248 2256 2262 2274 2279 2284 2301 2307 2322 2328 2334 2340 2352 2358 2363 2368
1440 1436 1431 1425 1410 1402 1394 1387 1370 1360 1350 1341 1325 1317 1310 1307 1312 1317 1321 1326 1330 1338 1343 1347 1350 1359 1364 1369 1375 1385 1389 1392 1395 1399 1400 1410 1413 1415 1422 1426 1430 1435 1443 1446 1449 1451 1455 1457 1459 1461 1464 1470 1473 1476 1479 1484 1485 1485 1485 1482 1480 1478 1477 1476 1478 1481 1485 1490 1502 1508 1514 1520 1531 1536 1541 1545 1560 1562 1562 1562 1559 1557 1555 1554 1553 1552 1551 1549 1549 1555 1560 1565 1569 1576 1580 1584 1588 1598 1603 1608 1612 1616 1623 1624 1626 1629 1633 1634 1637 1640 1648 1649 1650 1653 1659 1661 1664 1679 1683 1691 1695 1698 1702 1711 1715 1718 1722 1728 1729 1731 1734 1738 1747 1752 1757 1763 1776 1783 1791 1799 1815 1821 1827 1833 1846 1852 1857 1863 1869 1880 1886 1893 1905 1930 1943 1959 1977 2005 2016 1993 1998 2016 2027 2040 2053 2067 2090 2096 2104 2121 2158 2166 2168 2170 2176 2177 2179 2182 2184 2182 2183 2188 2193 2201 2204 2207 2211 2215 2215 2217 2218 2220 2221 2222 2223 2226 2235 2239 2243 2247 2260 2270 2276 2283 2301 2311 2321 2332 2353 2363 2373 2383 2393 2412 2421 2431 2440 2457 2465 2472 2477 2482 2482 2481 2479 2475 2471 2468 2464 2462 2455 2451 2449 2450 2447 2438 2427 2405 2345 2325 2312 2304 2288 2279 2266 2255 2244 2219 2206 2193 2180 2154 2141 2129 2117 2095 2086 2079 2074 2068 2067 2067 2067 2067 2064 2064 2065 2067 2071 2073 2076 2080 2091 2099 2107 2116 2126 2147 2155 2162 2169 2184 2191 2198 2205 2221 2248 2256 2262 2274 2279 2284 2289 2295 2309 2315 2321 2327 2339 2345 2350 2355
1419 1416 1413 1405 1399 1393 1386 1380 1363 1354 1345 1336 1317 1308 1300 1297 1302 1306 1311 1316 1320 1329 1333 1338 1342 1352 1357 1362 1367 1385 1389 1392 1395 1399 1400 1402 1404 1406 1411 1415 1419 1424 1433 1436 1439 1442 1447 1449 1451 1454 1460 1463 1467 1470 1473 1476 1477 1477 1477 1474 1473 1471 1471 1471 1473 1476 1479 1489 1495 1501 1514 1520 1531 1536 1541 1545 1549 1551 1551 1550 1548 1547 1545 1544 1542 1542 1541 1540 1540 1545 1548 1553 1558 1566 1570 1575 1579 1587 1591 1595 1599 1603 1609 1611 1613 1615 1619 1622 1625 1629 1638 1649 1650 1653 1659 1661 1664 1669 1673 1682 1687 1691 1696 1704 1708 1712 1717 1725 1727 1730 1734 1744 1750 1757 1763 1770 1785 1792 1799 1806 1819 1825 1832 1838 1851 1857 1862 1868 1879 1885 1892 1903 1917 1930 1943 1959 1977 2005 2016 2022 2026 2044 2057 2069 2081 2094 2112 2120 2126 2133 2149 2152 2154 2155 2159 2160 2162 2165 2169 2171 2174 2176 2179 2184 2187 2190 2193 2196 2197 2198 2200 2203 2204 2207 2210 2230 2235 2239 2243 2247 2260 2267 2277 2287 2309 2322 2333 2344 2364 2373 2382 2391 2408 2417 2426 2434 2442 2459 2466 2473 2477 2480 2480 2478 2476 2472 2469 2466 2464 2459 2457 2454 2452 2451 2446 2437 2424 2405 2345 2325 2312 2304 2288 2276 2263 2250 2238 2213 2199 2186 2174 2149 2137 2124 2112 2091 2081 2074 2067 2057 2054 2052 2049 2047 2042 2042 2043 2046 2053 2057 2062 2067 2078 2086 2093 2102 2122 2133 2141 2148 2169 2184 2191 2198 2205 2221 2229 2237 2245 2259 2266 2271 2277 2291 2297 2302 2308 2314 2326 2331 2337 2341
1399 1398 1396 1391 1388 1384 1378 1372 1356 1347 1338 1328 1307 1297 1290 1288 1291 1295 1300 1304 1313 1318 1324 1338 1342 1352 1357 1362 1367 1377 1381 1384 1386 1390 1392 1393 1395 1399 1402 1405 1409 1414 1423 1427 1430 1433 1438 1440 1443 1446 1453 1456 1460 1463 1468 1469 1469 1469 1468 1466 1465 1464 1464 1465 1473 1476 1479 1489 1495 1501 1506 1512 1522 1527 1531 1533 1536 1537 1538 1538 1538 1538 1537 1536 1534 1533 1532 1531 1533 1538 1542 1546 1551 1559 1563 1567 1571 1577 1580 1584 1587 1594 1597 1599 1601 1615 1619 1622 1625 1629 1638 1640 1641 1644 1650 1653 1655 1659 1669 1674 1679 1684 1688 1697 1702 1707 1712 1723 1727 1731 1736 1749 1756 1762 1770 1779 1793 1800 1805 1811 1823 1829 1835 1842 1855 1861 1867 1868 1879 1885 1892 1903 1917 1947 1961 1980 2002 2032 2041 2047 2054 2075 2088 2097 2105 2115 2119 2124 2128 2130 2136 2138 2139 2141 2145 2147 2149 2152 2158 2160 2163 2165 2169 2171 2173 2175 2177 2181 2183 2198 2200 2203 2204 2207 2210 2220 2225 2229 2235 2250 2259 2269 2281 2294 2321 2335 2347 2355 2372 2381 2389 2397 2411 2419 2426 2434 2441 2456 2463 2468 2472 2474 2473 2472 2470 2468 2464 2462 2460 2456 2455 2454 2452 2451 2446 2437 2424 2403 2351 2328 2314 2305 2284 2270 2256 2242 2215 2202 2189 2177 2165 2144 2132 2119 2106 2085 2077 2069 2061 2048 2043 2038 2034 2027 2023 2023 2024 2028 2037 2043 2048 2053 2065 2072 2093 2102 2122 2133 2141 2148 2161 2168 2174 2181 2188 2203 2212 2220 2229 2245 2252 2259 2264 2278 2284 2289 2294 2300 2312 2318 2324 2328
1378 1379 1379 1376 1375 1373 1370 1358 1349 1339 1329 1318 1295 1286 1280 1279 1282 1295 1300 1304 1313 1318 1324 1329 1340 1345 1350 1355 1360 1368 1371 1374 1376 1381 1383 1385 1387 1391 1394 1397 1400 1404 1413 1418 1421 1425 1430 1433 1435 1438 1445 1449 1452 1455 1459 1460 1460 1460 1468 1466 1465 1464 1464 1465 1466 1469 1472 1481 1486 1491 1497 1507 1512 1516 1518 1519 1520 1522 1523 1523 1525 1527 1527 1527 1524 1523 1522 1523 1528 1532 1535 1539 1542 1551 1555 1559 1563 1568 1570 1573 1587 1594 1597 1599 1601 1603 1608 1611 1614 1619 1629 1631 1633 1635 1642 1645 1648 1652 1661 1665 1670 1675 1680 1690 1695 1700 1707 1721 1727 1733 1739 1753 1761 1769 1777 1793 1799 1805 1810 1815 1825 1829 1835 1842 1855 1861 1867 1873 1888 1896 1906 1917 1947 1965 1984 2002 2021 2052 2062 2073 2082 2101 2108 2111 2112 2113 2115 2117 2119 2122 2124 2125 2127 2129 2134 2137 2140 2143 2149 2152 2154 2156 2159 2171 2173 2175 2177 2181 2183 2185 2187 2191 2194 2198 2203 2215 2219 2224 2231 2252 2264 2277 2291 2306 2335 2346 2356 2363 2378 2385 2392 2398 2411 2417 2424 2430 2443 2449 2454 2459 2462 2464 2463 2461 2460 2468 2464 2462 2460 2456 2455 2452 2448 2440 2433 2423 2409 2391 2355 2335 2319 2306 2277 2261 2246 2231 2202 2190 2179 2168 2158 2139 2126 2112 2100 2079 2072 2063 2054 2039 2033 2027 2021 2014 2011 2010 2011 2028 2037 2043 2048 2053 2065 2072 2080 2088 2106 2118 2127 2134 2148 2154 2160 2166 2174 2189 2197 2206 2215 2232 2239 2246 2252 2265 2271 2277 2282 2293 2299 2306 2311 2316
1358 1359 1360 1361 1361 1362 1360 1350 1341 1330 1318 1318 1295 1286 1280 1279 1282 1285 1289 1293 1302 1308 1314 1321 1333 1338 1343 1348 1352 1358 1361 1363 1366 1371 1374 1377 1379 1384 1387 1389 1392 1400 1405 1410 1414 1418 1424 1426 1429 1432 1438 1441 1452 1455 1459 1460 1460 1460 1459 1458 1458 1457 1457 1458 1459 1461 1464 1471 1476 1481 1486 1496 1500 1503 1504 1504 1506 1506 1507 1508 1511 1512 1512 1512 1511 1510 1511 1513 1518 1521 1524 1526 1530 1538 1555 1559 1563 1568 1570 1573 1576 1582 1585 1588 1591 1597 1599 1602 1605 1609 1619 1623 1625 1628 1635 1639 1643 1646 1654 1658 1662 1667 1677 1682 1688 1695 1703 1720 1728 1735 1741 1757 1765 1773 1782 1793 1799 1805 1810 1820 1825 1831 1837 1844 1859 1867 1874 1883 1901 1912 1922 1932 1954 1975 2002 2026 2047 2079 2090 2104 2112 2111 2110 2110 2108 2106 2106 2107 2108 2111 2112 2114 2117 2120 2126 2129 2133 2143 2149 2152 2154 2156 2159 2160 2162 2164 2169 2171 2174 2176 2179 2186 2190 2195 2202 2214 2219 2225 2233 2257 2272 2287 2304 2332 2342 2351 2358 2365 2379 2385 2390 2396 2407 2412 2418 2424 2434 2439 2442 2459 2462 2464 2463 2461 2460 2457 2454 2451 2450 2446 2445 2441 2435 2420 2411 2400 2386 2372 2348 2332 2315 2299 2265 2249 2233 2218 2191 2180 2170 2161 2144 2133 2119 2106 2095 2075 2066 2056 2047 2032 2025 2027 2021 2014 2011 2010 2011 2017 2022 2028 2034 2039 2050 2057 2065 2073 2090 2102 2112 2121 2136 2143 2148 2154 2169 2177 2185 2194 2203 2219 2226 2232 2239 2252 2259 2265 2270 2281 2287 2293 2298 2302
1337 1339 1341 1345 1347 1348 1360 1350 1341 1330 1318 1294 1284 1276 1273 1272 1274 1276 1279 1283 1293 1299 1305 1312 1324 1330 1335 1339 1345 1348 1350 1352 1355 1361 1364 1367 1371 1377 1379 1382 1385 1393 1398 1403 1408 1412 1418 1426 1429 1432 1438 1441 1444 1447 1450 1451 1451 1451 1450 1450 1450 1450 1450 1450 1451 1452 1455 1461 1465 1470 1475 1484 1487 1489 1489 1490 1490 1491 1491 1492 1494 1494 1494 1493 1496 1497 1499 1502 1518 1521 1524 1526 1534 1538 1542 1546 1550 1557 1560 1563 1566 1572 1575 1579 1582 1588 1591 1594 1597 1605 1610 1614 1617 1621 1629 1634 1638 1641 1647 1652 1656 1661 1671 1677 1685 1694 1703 1721 1730 1735 1741 1757 1765 1773 1782 1797 1804 1809 1814 1823 1829 1834 1842 1850 1867 1877 1887 1897 1918 1928 1937 1945 1957 1975 2011 2052 2106 2114 2119 2123 2122 2108 2103 2101 2099 2096 2096 2097 2098 2101 2103 2114 2117 2123 2126 2129 2133 2136 2142 2144 2146 2148 2151 2153 2155 2157 2163 2166 2169 2173 2177 2186 2191 2197 2204 2217 2223 2230 2239 2263 2278 2295 2310 2335 2343 2350 2357 2363 2375 2380 2385 2390 2400 2412 2418 2424 2434 2439 2442 2446 2449 2448 2447 2445 2443 2439 2436 2433 2431 2429 2427 2422 2415 2399 2390 2380 2368 2343 2332 2318 2302 2286 2252 2236 2221 2208 2184 2174 2165 2156 2138 2126 2115 2105 2083 2075 2066 2056 2047 2032 2025 2019 2013 2008 2006 2005 2005 2007 2010 2014 2019 2024 2035 2041 2049 2057 2075 2087 2098 2108 2126 2133 2138 2144 2159 2166 2174 2182 2190 2204 2211 2217 2224 2237 2244 2251 2257 2268 2287 2293 2298 2306
1337 1339 1341 1345 1347 1348 1347 1338 1330 1319 1306 1283 1274 1269 1266 1265 1268 1270 1272 1276 1284 1290 1296 1302 1315 1321 1326 1330 1336 1338 1340 1342 1345 1351 1355 1358 1362 1369 1372 1375 1378 1393 1398 1403 1408 1415 1418 1421 1423 1425 1430 1432 1435 1437 1440 1441 1441 1442 1442 1442 1442 1442 1442 1442 1442 1443 1445 1452 1455 1460 1464 1472 1474 1475 1475 1473 1473 1472 1471 1470 1471 1472 1494 1493 1496 1497 1499 1502 1507 1509 1511 1513 1520 1524 1528 1532 1536 1544 1549 1553 1556 1563 1567 1570 1573 1580 1583 1586 1590 1597 1601 1605 1609 1613 1623 1628 1633 1635 1644 1649 1653 1658 1669 1677 1685 1694 1712 1721 1730 1738 1745 1761 1769 1777 1785 1800 1807 1814 1820 1831 1838 1844 1851 1868 1877 1889 1901 1911 1933 1943 1950 1956 1962 1979 2020 2070 2100 2120 2114 2111 2107 2096 2092 2089 2087 2096 2096 2097 2098 2101 2103 2105 2108 2116 2119 2123 2126 2129 2134 2136 2138 2140 2146 2148 2151 2154 2161 2165 2170 2174 2184 2189 2195 2202 2208 2220 2226 2234 2243 2267 2281 2296 2309 2330 2337 2344 2351 2369 2375 2380 2385 2390 2400 2404 2409 2414 2422 2426 2428 2430 2430 2429 2426 2424 2419 2416 2411 2408 2407 2404 2402 2399 2393 2379 2371 2361 2351 2326 2314 2301 2287 2272 2240 2225 2213 2202 2180 2171 2163 2156 2138 2126 2115 2105 2083 2072 2062 2052 2043 2028 2022 2016 2010 2005 2004 2003 2002 2001 2001 2003 2006 2014 2019 2025 2031 2039 2059 2073 2085 2094 2115 2123 2128 2134 2148 2155 2162 2168 2182 2187 2193 2199 2224 2237 2244 2251 2257 2268 2274 2279 2283 2290
1316 1318 1321 1328 1331 1333 1332 1326 1318 1307 1296 1274 1266 1261 1259 1259 1261 1264 1267 1270 1277 1282 1287 1293 1305 1311 1316 1320 1326 1329 1331 1334 1339 1343 1346 1358 1362 1369 1372 1375 1378 1386 1391 1396 1401 1409 1412 1415 1417 1421 1422 1423 1425 1426 1429 1430 1432 1432 1433 1433 1433 1432 1432 1432 1433 1433 1435 1442 1445 1449 1453 1458 1459 1459 1458 1453 1473 1472 1471 1470 1471 1472 1471 1472 1480 1484 1488 1491 1495 1497 1499 1502 1507 1511 1515 1519 1526 1531 1536 1541 1546 1555 1559 1563 1566 1573 1576 1580 1583 1591 1595 1600 1604 1612 1617 1622 1627 1631 1644 1649 1653 1658 1669 1677 1685 1695 1715 1724 1733 1742 1749 1764 1772 1780 1788 1806 1814 1823 1831 1847 1854 1861 1867 1878 1886 1899 1911 1920 1946 1959 1968 1971 1973 1991 2028 2070 2106 2091 2080 2111 2101 2096 2092 2089 2087 2085 2086 2087 2089 2093 2095 2097 2101 2107 2110 2114 2116 2121 2124 2127 2130 2133 2141 2145 2149 2153 2162 2167 2172 2177 2188 2194 2200 2206 2218 2223 2230 2237 2246 2267 2279 2296 2309 2330 2337 2344 2351 2362 2367 2372 2377 2381 2391 2395 2399 2403 2409 2411 2412 2412 2410 2407 2404 2400 2393 2389 2384 2381 2381 2379 2377 2375 2370 2358 2350 2341 2332 2310 2298 2286 2273 2245 2232 2225 2213 2202 2180 2171 2163 2155 2136 2126 2117 2108 2085 2073 2062 2051 2034 2027 2021 2015 2010 2003 2002 2000 1998 1995 1994 1994 1996 2002 2005 2009 2015 2022 2043 2058 2069 2079 2100 2110 2118 2124 2136 2142 2162 2168 2182 2187 2193 2199 2206 2220 2227 2235 2243 2253 2258 2262 2266 2273
1300 1301 1306 1309 1312 1314 1315 1310 1303 1294 1284 1264 1256 1252 1250 1252 1255 1258 1261 1268 1271 1275 1280 1285 1296 1301 1306 1311 1318 1329 1331 1334 1339 1343 1346 1350 1355 1362 1366 1369 1373 1381 1386 1390 1395 1403 1406 1408 1410 1412 1413 1414 1415 1416 1419 1420 1421 1422 1422 1422 1422 1422 1422 1422 1423 1423 1427 1430 1433 1436 1453 1458 1459 1459 1458 1453 1451 1449 1447 1445 1447 1448 1449 1458 1464 1470 1475 1478 1484 1487 1489 1492 1497 1500 1504 1509 1516 1520 1525 1531 1536 1548 1552 1556 1560 1567 1571 1575 1578 1587 1592 1596 1604 1612 1617 1622 1627 1631 1643 1649 1654 1660 1674 1681 1690 1699 1719 1728 1737 1745 1758 1765 1772 1781 1791 1815 1827 1838 1849 1867 1874 1879 1883 1890 1899 1912 1924 1947 1965 1980 1987 1987 1984 1991 2028 2070 2106 2091 2080 2079 2080 2079 2076 2073 2073 2073 2074 2077 2079 2083 2085 2087 2090 2095 2098 2101 2104 2109 2112 2116 2121 2126 2137 2142 2147 2152 2163 2168 2174 2180 2192 2198 2203 2209 2220 2223 2230 2237 2246 2267 2279 2292 2303 2321 2328 2335 2341 2351 2356 2361 2366 2375 2379 2384 2388 2391 2395 2395 2394 2393 2388 2384 2380 2375 2368 2365 2362 2360 2358 2357 2355 2352 2348 2337 2330 2322 2313 2310 2298 2286 2273 2245 2232 2220 2209 2200 2181 2172 2164 2157 2141 2133 2125 2115 2093 2081 2069 2058 2039 2031 2024 2018 2013 2004 2002 1998 1993 1989 1989 1989 1990 1993 1994 1997 2001 2015 2027 2040 2052 2062 2100 2110 2118 2124 2136 2142 2148 2154 2164 2168 2172 2177 2192 2200 2208 2218 2226 2237 2240 2244 2247 2255
1289 1289 1290 1292 1294 1295 1295 1292 1285 1277 1269 1251 1245 1241 1240 1243 1247 1251 1255 1262 1266 1270 1274 1285 1296 1301 1306 1311 1318 1322 1324 1327 1333 1336 1339 1343 1352 1356 1361 1364 1368 1377 1381 1385 1389 1396 1398 1400 1401 1403 1403 1403 1404 1407 1409 1409 1410 1411 1411 1411 1411 1412 1413 1413 1423 1423 1427 1430 1433 1436 1439 1441 1440 1437 1434 1427 1424 1423 1423 1424 1427 1429 1433 1445 1451 1456 1461 1465 1474 1477 1481 1484 1490 1492 1496 1501 1509 1513 1518 1524 1535 1540 1544 1549 1553 1561 1571 1575 1578 1587 1592 1596 1600 1609 1613 1618 1624 1638 1645 1652 1658 1665 1680 1687 1695 1704 1724 1733 1742 1748 1757 1764 1773 1783 1812 1828 1843 1857 1868 1888 1892 1893 1894 1908 1923 1936 1944 1947 1965 1980 1987 1987 1984 1996 2023 2053 2074 2063 2057 2058 2062 2061 2059 2058 2060 2061 2063 2065 2067 2070 2072 2074 2076 2081 2083 2086 2090 2097 2101 2106 2112 2125 2132 2138 2145 2151 2163 2169 2175 2180 2192 2198 2203 2209 2220 2225 2231 2238 2254 2263 2274 2284 2294 2310 2316 2322 2328 2338 2343 2348 2352 2360 2364 2368 2372 2374 2375 2374 2373 2371 2364 2358 2354 2351 2347 2345 2345 2344 2338 2336 2334 2352 2348 2337 2330 2322 2313 2294 2284 2273 2261 2238 2228 2218 2209 2194 2186 2176 2168 2163 2152 2144 2137 2128 2107 2096 2084 2072 2050 2040 2031 2024 2013 2008 2004 1999 1994 1988 1987 1987 1987 1988 1988 1989 2001 2015 2027 2040 2052 2073 2084 2094 2104 2112 2122 2127 2132 2137 2144 2147 2150 2155 2171 2179 2189 2199 2208 2220 2223 2226 2229 2238
1284 1281 1277 1277 1278 1278 1275 1272 1266 1259 1252 1237 1232 1229 1229 1234 1238 1243 1255 1262 1266 1270 1274 1283 1288 1293 1298 1303 1312 1316 1319 1322 1327 1330 1333 1337 1346 1351 1356 1361 1365 1374 1377 1381 1384 1389 1390 1391 1391 1389 1389 1389 1389 1394 1395 1396 1397 1397 1398 1411 1411 1412 1413 1413 1413 1412 1415 1417 1419 1421 1420 1417 1414 1409 1406 1400 1399 1400 1401 1408 1411 1415 1420 1433 1438 1443 1448 1458 1463 1467 1471 1476 1483 1487 1491 1495 1504 1509 1514 1520 1535 1540 1544 1549 1557 1561 1565 1569 1574 1584 1588 1593 1597 1606 1612 1618 1625 1640 1648 1657 1664 1671 1685 1693 1702 1711 1729 1738 1745 1751 1762 1770 1781 1794 1827 1845 1862 1877 1889 1906 1908 1893 1894 1908 1923 1936 1944 1969 1988 2000 2001 1996 1995 2000 2015 2034 2050 2048 2048 2049 2047 2045 2044 2044 2048 2049 2050 2052 2054 2055 2056 2058 2060 2065 2068 2071 2076 2085 2091 2097 2104 2119 2127 2138 2145 2151 2163 2169 2175 2181 2193 2199 2205 2210 2219 2224 2229 2235 2250 2258 2266 2274 2283 2297 2303 2308 2313 2323 2327 2331 2334 2341 2344 2347 2349 2350 2349 2349 2348 2346 2338 2332 2329 2328 2327 2345 2345 2344 2338 2336 2334 2330 2322 2316 2311 2304 2298 2281 2272 2263 2253 2235 2227 2219 2212 2200 2192 2183 2176 2171 2165 2159 2152 2145 2126 2115 2104 2088 2063 2054 2044 2034 2019 2014 2009 2004 1997 1989 1987 1987 1987 1988 1988 1989 1991 2002 2011 2022 2034 2054 2064 2075 2085 2095 2106 2110 2115 2119 2124 2127 2131 2136 2151 2160 2170 2179 2196 2203 2207 2210 2214 2222
1283 1278 1269 1267 1265 1263 1258 1255 1249 1241 1228 1222 1232 1229 1229 1234 1238 1243 1249 1258 1262 1265 1269 1277 1282 1286 1291 1296 1306 1310 1314 1317 1323 1325 1328 1332 1341 1347 1352 1357 1367 1370 1373 1376 1378 1380 1381 1380 1377 1372 1371 1371 1372 1394 1395 1396 1397 1397 1398 1398 1398 1399 1401 1402 1402 1402 1401 1401 1402 1401 1394 1390 1386 1382 1377 1377 1378 1380 1383 1392 1396 1400 1406 1420 1426 1431 1437 1448 1452 1457 1462 1467 1477 1481 1491 1495 1504 1509 1514 1520 1530 1534 1538 1542 1549 1554 1559 1564 1570 1582 1586 1590 1595 1605 1612 1621 1629 1644 1653 1661 1670 1685 1693 1701 1710 1720 1737 1745 1752 1758 1773 1784 1797 1812 1850 1869 1862 1877 1899 1906 1908 1907 1910 1935 1950 1957 1963 1985 1998 2005 2004 2002 2003 2007 2013 2023 2034 2035 2036 2035 2033 2032 2031 2033 2035 2036 2037 2038 2039 2040 2041 2042 2044 2050 2054 2058 2063 2085 2091 2097 2104 2119 2127 2134 2141 2155 2161 2168 2175 2181 2193 2198 2204 2208 2216 2221 2226 2231 2244 2251 2258 2265 2278 2284 2289 2294 2298 2306 2309 2312 2314 2318 2320 2321 2321 2322 2322 2322 2322 2343 2338 2332 2329 2328 2327 2326 2326 2325 2316 2312 2309 2307 2302 2298 2294 2289 2284 2271 2264 2256 2249 2236 2229 2223 2217 2207 2200 2192 2188 2186 2182 2176 2169 2162 2145 2135 2121 2101 2076 2066 2058 2048 2019 2014 2009 2004 1992 1989 1987 1986 1986 1985 1985 1984 1985 1993 1999 2007 2017 2035 2044 2054 2063 2081 2087 2092 2097 2102 2109 2112 2117 2123 2137 2145 2153 2161 2178 2185 2192 2197 2201 2211
1286 1279 1267 1262 1258 1254 1258 1255 1249 1241 1228 1222 1219 1217 1218 1223 1228 1234 1240 1252 1257 1261 1265 1272 1276 1281 1285 1295 1300 1304 1309 1312 1318 1321 1324 1327 1337 1343 1348 1353 1362 1365 1367 1369 1370 1369 1366 1380 1377 1372 1371 1371 1372 1376 1378 1379 1380 1381 1381 1381 1382 1384 1386 1388 1389 1389 1385 1382 1379 1376 1367 1364 1361 1358 1357 1359 1362 1364 1367 1377 1381 1386 1393 1407 1413 1419 1425 1437 1452 1457 1462 1472 1477 1481 1486 1490 1499 1505 1511 1517 1526 1530 1534 1539 1546 1550 1555 1561 1573 1577 1582 1588 1594 1608 1615 1624 1633 1650 1658 1666 1676 1695 1704 1713 1723 1733 1752 1757 1763 1773 1773 1784 1797 1812 1850 1869 1887 1902 1920 1923 1923 1925 1932 1961 1969 1972 1975 1985 1991 1995 1996 1999 2002 2006 2009 2016 2018 2019 2020 2020 2020 2020 2021 2022 2023 2024 2024 2024 2025 2026 2027 2042 2047 2050 2054 2058 2063 2075 2081 2088 2096 2113 2122 2130 2137 2152 2159 2166 2172 2184 2190 2196 2201 2205 2211 2216 2220 2226 2237 2243 2250 2256 2267 2272 2276 2280 2283 2289 2292 2294 2295 2296 2296 2296 2321 2322 2322 2322 2322 2316 2312 2309 2306 2306 2306 2305 2305 2303 2296 2292 2290 2288 2286 2284 2281 2278 2270 2265 2260 2255 2250 2240 2234 2229 2224 2215 2209 2204 2201 2200 2197 2192 2185 2168 2160 2152 2121 2101 2076 2066 2058 2048 2029 2022 2016 2010 1997 1992 1989 1987 1985 1984 1984 1983 1982 1988 1991 1997 2004 2018 2026 2034 2042 2059 2066 2073 2080 2086 2096 2101 2107 2114 2128 2134 2140 2147 2161 2169 2192 2197 2206 2211
1286 1279 1267 1262 1258 1254 1246 1242 1236 1227 1214 1210 1207 1206 1209 1213 1218 1224 1232 1246 1252 1257 1260 1267 1271 1275 1279 1288 1293 1298 1302 1306 1313 1316 1319 1322 1332 1337 1342 1347 1355 1365 1367 1369 1370 1369 1366 1362 1357 1351 1350 1350 1352 1355 1356 1357 1358 1361 1362 1363 1364 1368 1369 1370 1371 1370 1362 1356 1352 1348 1343 1341 1340 1339 1341 1344 1346 1349 1357 1362 1367 1373 1393 1407 1413 1419 1425 1437 1443 1448 1453 1465 1471 1475 1480 1485 1496 1501 1507 1514 1523 1526 1531 1537 1545 1549 1553 1559 1568 1573 1579 1586 1593 1610 1620 1629 1637 1654 1662 1670 1680 1705 1718 1730 1723 1743 1752 1757 1763 1773 1791 1802 1816 1832 1877 1902 1920 1931 1940 1940 1941 1944 1960 1971 1977 1979 1978 1977 1979 1982 1985 1988 1991 1994 1996 1999 2001 2003 2004 2007 2009 2009 2010 2010 2011 2011 2024 2024 2025 2026 2027 2029 2035 2039 2043 2048 2054 2066 2073 2081 2089 2107 2116 2125 2133 2149 2155 2162 2168 2180 2185 2191 2196 2199 2205 2210 2214 2219 2231 2236 2241 2246 2257 2262 2266 2269 2273 2275 2292 2294 2295 2296 2296 2296 2295 2295 2296 2298 2298 2290 2286 2284 2284 2286 2287 2287 2286 2285 2282 2279 2277 2277 2278 2277 2275 2274 2269 2266 2263 2260 2256 2247 2242 2238 2233 2223 2220 2217 2215 2214 2197 2192 2185 2168 2160 2152 2139 2121 2093 2082 2071 2064 2044 2035 2027 2019 2006 1999 1994 1991 1987 1986 1986 1985 1984 1985 1988 1992 1996 2005 2011 2017 2025 2041 2048 2056 2064 2077 2084 2090 2097 2105 2128 2134 2140 2147 2161 2169 2178 2185 2197 2203
1291 1284 1270 1264 1258 1252 1240 1235 1228 1219 1205 1201 1198 1197 1200 1204 1209 1216 1223 1239 1246 1251 1256 1262 1265 1269 1273 1281 1286 1291 1295 1302 1305 1309 1312 1322 1332 1337 1342 1347 1355 1357 1358 1358 1355 1351 1346 1341 1333 1330 1328 1328 1329 1331 1332 1332 1333 1337 1340 1342 1344 1349 1350 1349 1346 1344 1333 1328 1325 1323 1321 1322 1322 1323 1328 1329 1346 1349 1357 1362 1367 1373 1381 1395 1401 1407 1414 1427 1434 1440 1446 1461 1467 1471 1476 1488 1493 1499 1505 1511 1519 1521 1526 1531 1540 1545 1549 1554 1565 1571 1578 1585 1603 1613 1624 1634 1642 1657 1662 1670 1680 1705 1718 1730 1741 1760 1771 1780 1788 1809 1818 1828 1842 1861 1919 1951 1968 1969 1960 1956 1956 1957 1962 1969 1973 1973 1971 1967 1968 1971 1972 1974 1977 1979 1981 1984 1986 1988 1991 1995 2009 2009 2010 2010 2011 2011 2011 2012 2014 2015 2017 2020 2028 2032 2037 2042 2054 2061 2068 2076 2084 2102 2111 2120 2129 2144 2151 2157 2163 2174 2179 2185 2189 2195 2199 2203 2208 2214 2224 2229 2233 2239 2257 2262 2266 2269 2273 2275 2278 2280 2280 2278 2277 2275 2273 2272 2274 2274 2274 2268 2265 2265 2266 2269 2271 2272 2273 2274 2274 2273 2272 2273 2277 2278 2278 2278 2275 2273 2271 2268 2261 2257 2253 2248 2233 2223 2220 2217 2215 2214 2212 2206 2198 2183 2175 2167 2159 2126 2111 2098 2086 2073 2063 2052 2042 2033 2020 2012 2006 2001 1995 1993 1992 1990 1989 1987 1989 1991 1993 1998 2002 2006 2012 2027 2034 2041 2064 2077 2084 2090 2097 2105 2119 2125 2130 2136 2148 2155 2163 2172 2188 2195
1298 1283 1276 1268 1261 1254 1240 1232 1225 1215 1200 1196 1193 1191 1192 1196 1201 1208 1225 1233 1240 1246 1250 1256 1259 1263 1266 1274 1278 1291 1295 1302 1305 1309 1312 1321 1326 1330 1335 1340 1345 1346 1345 1343 1335 1329 1325 1321 1314 1311 1308 1307 1306 1306 1306 1307 1308 1313 1317 1320 1323 1327 1327 1324 1319 1311 1306 1302 1301 1301 1303 1322 1322 1323 1328 1329 1332 1335 1344 1349 1355 1362 1377 1383 1390 1397 1404 1419 1427 1436 1443 1458 1464 1469 1475 1486 1491 1497 1502 1512 1514 1516 1520 1523 1534 1539 1544 1549 1562 1570 1578 1587 1603 1613 1624 1634 1642 1657 1665 1674 1683 1713 1733 1751 1763 1784 1802 1817 1824 1840 1851 1863 1879 1905 1973 2001 2014 2010 1976 1965 1963 1964 1958 1961 1961 1960 1956 1956 1956 1957 1957 1961 1964 1966 1981 1984 1986 1988 1991 1995 1995 1995 1995 1995 1995 1996 1997 2000 2005 2007 2010 2014 2023 2028 2033 2038 2051 2058 2065 2073 2081 2098 2107 2116 2125 2140 2146 2152 2157 2167 2172 2178 2182 2189 2194 2198 2208 2214 2224 2229 2233 2239 2249 2253 2257 2260 2263 2265 2266 2267 2266 2265 2262 2260 2258 2256 2256 2256 2256 2253 2252 2253 2255 2259 2262 2264 2266 2271 2273 2274 2275 2277 2285 2287 2288 2288 2287 2286 2271 2268 2261 2257 2253 2248 2242 2233 2230 2227 2226 2226 2225 2220 2212 2198 2191 2184 2176 2152 2134 2121 2108 2095 2081 2072 2062 2053 2037 2028 2019 2011 2003 2000 1998 1997 1996 1994 1992 1992 1992 1995 2002 2006 2012 2027 2034 2041 2049 2064 2071 2078 2086 2102 2110 2116 2121 2126 2136 2142 2149 2157 2174 2182
1304 1289 1281 1273 1265 1250 1241 1232 1224 1214 1199 1195 1192 1189 1189 1191 1195 1202 1219 1227 1233 1239 1244 1250 1259 1263 1266 1274 1278 1282 1286 1293 1296 1300 1304 1313 1318 1322 1326 1330 1332 1330 1326 1321 1310 1306 1303 1300 1294 1292 1289 1287 1283 1282 1283 1284 1286 1292 1297 1300 1303 1306 1304 1300 1295 1311 1306 1302 1301 1302 1303 1305 1307 1310 1316 1317 1320 1323 1332 1338 1345 1353 1367 1375 1382 1390 1398 1416 1426 1435 1443 1457 1462 1468 1474 1485 1490 1494 1498 1507 1509 1511 1514 1517 1529 1535 1544 1549 1562 1570 1578 1587 1606 1617 1628 1640 1655 1662 1668 1675 1683 1718 1746 1770 1788 1821 1843 1857 1860 1873 1887 1904 1927 1990 2010 2023 2029 2024 1983 1967 1962 1961 1952 1951 1949 1947 1943 1942 1956 1957 1957 1961 1964 1966 1968 1970 1972 1974 1976 1978 1977 1975 1974 1974 1976 1978 1982 1987 1998 2001 2006 2010 2020 2026 2031 2038 2051 2058 2064 2071 2086 2094 2103 2111 2120 2135 2141 2146 2151 2161 2172 2178 2182 2189 2194 2198 2204 2214 2219 2223 2228 2233 2242 2246 2249 2252 2255 2256 2256 2257 2256 2255 2252 2249 2247 2246 2246 2245 2245 2245 2246 2248 2250 2256 2260 2263 2267 2274 2278 2281 2283 2286 2285 2287 2288 2288 2287 2286 2284 2281 2274 2270 2265 2259 2248 2244 2240 2237 2236 2237 2237 2233 2227 2215 2209 2202 2195 2175 2156 2143 2130 2107 2098 2089 2080 2071 2054 2045 2034 2023 2012 2008 2005 2005 1996 1994 1992 1992 1993 1995 1997 2001 2005 2017 2024 2030 2038 2051 2057 2064 2072 2089 2097 2104 2109 2113 2121 2126 2133 2141 2159 2167
1308 1293 1285 1276 1268 1252 1242 1233 1224 1215 1200 1197 1194 1191 1189 1190 1192 1197 1219 1227 1233 1239 1247 1250 1253 1256 1258 1264 1268 1271 1275 1282 1286 1290 1295 1305 1310 1314 1317 1318 1315 1311 1304 1297 1286 1282 1280 1278 1274 1272 1270 1267 1264 1264 1264 1265 1268 1275 1280 1300 1303 1306 1304 1300 1295 1287 1284 1282 1282 1284 1287 1290 1293 1297 1306 1308 1311 1315 1325 1332 1340 1348 1363 1370 1379 1387 1406 1417 1427 1435 1443 1456 1460 1466 1472 1482 1487 1489 1492 1501 1509 1511 1514 1523 1529 1535 1540 1547 1562 1570 1580 1589 1610 1621 1633 1645 1661 1666 1670 1676 1684 1720 1752 1781 1805 1855 1880 1893 1896 1908 1927 1949 1972 2013 2019 2021 2021 2014 1974 1960 1952 1949 1952 1951 1949 1947 1943 1942 1941 1941 1946 1949 1951 1953 1954 1956 1957 1958 1958 1956 1955 1953 1953 1955 1959 1963 1969 1985 1992 1997 2002 2008 2019 2025 2032 2038 2052 2059 2065 2071 2083 2090 2098 2106 2120 2135 2141 2146 2151 2161 2166 2172 2176 2186 2191 2195 2200 2211 2215 2219 2223 2228 2236 2239 2242 2245 2249 2250 2250 2251 2250 2248 2246 2245 2242 2242 2241 2241 2241 2242 2245 2247 2251 2259 2264 2269 2267 2274 2278 2281 2283 2292 2298 2302 2303 2304 2303 2301 2299 2296 2289 2285 2280 2273 2261 2257 2253 2250 2247 2247 2248 2249 2246 2235 2229 2223 2217 2199 2179 2165 2152 2128 2118 2108 2098 2087 2069 2062 2034 2023 2012 2008 2005 2005 2004 2001 1998 1995 1993 1993 1995 1997 2001 2011 2016 2022 2029 2039 2043 2048 2054 2070 2079 2086 2092 2101 2105 2109 2116 2124 2142 2151
1310 1294 1286 1278 1270 1253 1244 1235 1226 1207 1201 1199 1194 1191 1189 1190 1192 1197 1212 1220 1226 1231 1238 1241 1243 1246 1249 1254 1258 1261 1264 1271 1275 1280 1285 1296 1301 1304 1305 1301 1296 1289 1280 1273 1262 1259 1257 1256 1253 1252 1250 1249 1248 1264 1264 1265 1271 1275 1280 1284 1286 1287 1284 1280 1275 1268 1266 1265 1265 1268 1271 1275 1280 1291 1297 1301 1306 1312 1325 1332 1340 1348 1363 1371 1380 1389 1408 1419 1429 1437 1444 1456 1459 1464 1472 1482 1487 1489 1492 1501 1505 1507 1510 1520 1527 1534 1540 1547 1564 1573 1583 1593 1614 1626 1637 1648 1663 1668 1673 1679 1703 1724 1752 1783 1812 1881 1911 1927 1932 1945 1964 1983 1998 2012 2012 2008 2021 1995 1974 1960 1952 1949 1943 1940 1937 1934 1930 1929 1928 1928 1934 1936 1937 1937 1936 1936 1937 1938 1937 1935 1934 1934 1936 1942 1947 1953 1961 1980 1987 1994 2000 2006 2019 2026 2033 2040 2053 2059 2065 2071 2083 2090 2098 2106 2122 2129 2135 2141 2146 2157 2163 2169 2174 2183 2189 2194 2199 2208 2212 2215 2219 2227 2231 2235 2238 2241 2245 2246 2248 2248 2248 2247 2246 2246 2244 2243 2243 2243 2243 2246 2245 2247 2251 2259 2264 2269 2273 2282 2287 2292 2297 2308 2315 2319 2321 2322 2321 2319 2316 2313 2305 2301 2295 2288 2277 2272 2268 2265 2262 2262 2262 2264 2267 2260 2253 2247 2242 2227 2212 2197 2183 2156 2118 2108 2098 2077 2069 2062 2052 2043 2029 2024 2020 2018 2013 2009 2005 2001 1995 1994 1995 1997 2003 2006 2011 2016 2022 2028 2029 2031 2036 2050 2057 2064 2070 2082 2088 2093 2100 2108 2125 2134
1309 1293 1286 1279 1271 1253 1244 1235 1226 1207 1201 1199 1196 1192 1189 1190 1191 1194 1205 1212 1218 1223 1229 1231 1233 1236 1242 1245 1248 1252 1255 1263 1267 1272 1276 1286 1290 1292 1292 1283 1276 1268 1259 1244 1240 1237 1236 1256 1253 1252 1250 1249 1248 1249 1250 1253 1259 1262 1265 1268 1271 1269 1266 1262 1257 1252 1250 1250 1250 1254 1258 1262 1267 1282 1290 1297 1304 1312 1329 1337 1345 1353 1368 1376 1385 1394 1411 1421 1429 1437 1451 1456 1459 1464 1469 1477 1480 1483 1485 1497 1502 1506 1509 1521 1528 1535 1542 1558 1568 1577 1587 1598 1619 1629 1639 1648 1664 1671 1679 1688 1715 1735 1762 1792 1860 1907 1942 1956 1961 1975 1964 1983 1998 2012 2012 2008 2001 1968 1953 1944 1938 1935 1930 1927 1925 1922 1919 1918 1917 1918 1919 1919 1917 1916 1914 1914 1915 1916 1916 1917 1918 1921 1924 1934 1940 1948 1957 1976 1983 1991 1998 2013 2019 2026 2033 2040 2053 2059 2065 2070 2080 2086 2093 2100 2115 2123 2129 2136 2148 2155 2162 2168 2173 2182 2188 2193 2198 2207 2210 2213 2216 2224 2228 2232 2236 2240 2244 2246 2248 2250 2252 2252 2252 2252 2244 2243 2243 2243 2243 2246 2249 2253 2257 2268 2274 2280 2284 2295 2301 2307 2314 2326 2333 2337 2339 2339 2337 2335 2332 2328 2319 2315 2310 2304 2294 2289 2286 2283 2279 2278 2278 2280 2285 2284 2278 2271 2242 2227 2212 2197 2183 2156 2143 2130 2119 2095 2086 2078 2069 2061 2047 2041 2035 2030 2027 2020 2014 2009 2001 1999 1999 2000 2001 2003 2007 2010 2014 2017 2016 2017 2021 2032 2038 2044 2049 2063 2070 2077 2085 2116 2125 2134
1307 1293 1286 1279 1271 1253 1245 1236 1227 1208 1203 1200 1196 1189 1187 1187 1188 1191 1198 1204 1209 1214 1220 1222 1225 1227 1233 1237 1240 1244 1252 1256 1260 1265 1270 1277 1279 1279 1276 1264 1256 1268 1259 1244 1240 1237 1236 1235 1233 1232 1232 1232 1234 1236 1239 1242 1248 1250 1251 1252 1252 1249 1246 1243 1240 1237 1237 1237 1239 1243 1246 1250 1255 1275 1286 1297 1307 1327 1337 1346 1353 1361 1377 1376 1385 1394 1411 1421 1429 1437 1450 1454 1457 1460 1466 1469 1473 1475 1478 1493 1500 1507 1512 1525 1533 1540 1547 1564 1574 1584 1594 1603 1622 1630 1639 1649 1669 1678 1688 1700 1733 1758 1785 1814 1860 1907 1942 1956 1961 1975 1987 1996 2000 1998 1994 1984 1969 1941 1931 1926 1922 1917 1915 1913 1912 1910 1908 1906 1905 1904 1899 1897 1894 1893 1892 1893 1895 1898 1903 1906 1909 1914 1919 1932 1939 1947 1957 1976 1983 1991 1998 2013 2020 2027 2033 2040 2052 2058 2063 2067 2076 2081 2087 2093 2108 2116 2124 2132 2147 2154 2162 2170 2174 2182 2187 2193 2198 2205 2209 2211 2215 2223 2227 2231 2237 2244 2247 2250 2248 2250 2252 2252 2252 2252 2251 2251 2251 2251 2252 2255 2259 2263 2274 2280 2287 2293 2299 2310 2317 2323 2330 2343 2349 2352 2353 2353 2351 2348 2344 2340 2331 2327 2323 2319 2310 2306 2303 2301 2297 2296 2278 2280 2285 2284 2278 2271 2266 2253 2243 2230 2216 2185 2169 2153 2140 2114 2104 2093 2083 2069 2061 2054 2047 2040 2038 2037 2029 2021 2010 2007 2006 2005 2001 2001 2003 2005 2008 2007 2006 2007 2009 2017 2022 2044 2049 2063 2070 2077 2085 2100 2109 2117
1299 1291 1284 1277 1269 1253 1246 1237 1227 1210 1204 1200 1195 1187 1184 1183 1184 1185 1190 1195 1201 1206 1212 1215 1217 1220 1226 1229 1233 1238 1246 1250 1254 1259 1263 1268 1279 1279 1276 1264 1256 1248 1239 1225 1221 1219 1217 1215 1214 1214 1214 1215 1219 1223 1227 1231 1236 1236 1236 1235 1232 1230 1228 1226 1225 1225 1226 1227 1228 1234 1237 1241 1247 1272 1286 1300 1313 1327 1337 1346 1353 1361 1377 1384 1392 1399 1413 1420 1428 1435 1446 1450 1453 1455 1459 1463 1467 1471 1474 1490 1499 1507 1515 1532 1540 1547 1555 1573 1582 1592 1601 1616 1624 1633 1644 1657 1679 1688 1688 1700 1733 1758 1785 1814 1891 1936 1964 1973 1981 1985 1988 1987 1985 1973 1965 1954 1940 1923 1915 1910 1908 1901 1900 1899 1898 1897 1893 1890 1887 1884 1876 1874 1872 1872 1875 1877 1881 1886 1895 1901 1909 1914 1919 1932 1939 1947 1955 1972 1980 1989 1997 2012 2019 2026 2032 2044 2050 2054 2059 2063 2070 2075 2080 2086 2101 2109 2118 2127 2145 2153 2162 2170 2179 2183 2187 2192 2197 2204 2208 2210 2214 2222 2227 2231 2237 2244 2247 2250 2254 2256 2260 2262 2263 2264 2264 2264 2264 2265 2266 2269 2272 2277 2288 2294 2301 2308 2314 2325 2331 2337 2342 2355 2359 2362 2363 2362 2360 2357 2353 2344 2339 2335 2332 2329 2310 2306 2303 2301 2297 2296 2295 2295 2298 2299 2297 2293 2281 2276 2268 2259 2247 2213 2194 2175 2161 2132 2121 2109 2098 2083 2076 2068 2059 2047 2044 2047 2047 2039 2024 2019 2015 2011 2006 2003 2002 2002 2001 2007 2006 2007 2009 2017 2022 2027 2032 2045 2053 2062 2070 2084 2092 2101
1296 1288 1280 1273 1266 1253 1245 1236 1227 1209 1203 1198 1193 1183 1180 1178 1178 1179 1182 1187 1193 1198 1205 1208 1210 1213 1219 1223 1227 1232 1246 1250 1254 1259 1266 1268 1268 1265 1260 1245 1236 1228 1221 1210 1207 1204 1202 1200 1199 1199 1199 1200 1206 1210 1215 1218 1222 1222 1221 1220 1215 1214 1212 1212 1213 1215 1216 1217 1219 1226 1231 1241 1247 1272 1286 1300 1313 1337 1347 1355 1363 1377 1384 1391 1397 1402 1413 1419 1425 1430 1438 1442 1446 1449 1454 1459 1464 1469 1482 1491 1500 1509 1518 1539 1547 1555 1564 1583 1593 1602 1609 1621 1624 1633 1644 1657 1679 1688 1700 1714 1753 1783 1815 1849 1930 1958 1972 1976 1975 1973 1969 1964 1957 1939 1932 1926 1919 1905 1899 1895 1892 1886 1884 1882 1881 1877 1874 1870 1866 1861 1855 1854 1855 1857 1875 1877 1881 1886 1895 1901 1907 1913 1926 1933 1940 1947 1954 1969 1977 1986 1994 2010 2017 2023 2029 2040 2045 2049 2053 2057 2063 2067 2072 2077 2093 2102 2112 2122 2142 2151 2160 2168 2179 2183 2186 2191 2197 2204 2208 2210 2214 2222 2227 2233 2239 2249 2253 2258 2262 2268 2272 2275 2277 2278 2279 2279 2280 2281 2283 2285 2288 2292 2302 2308 2314 2320 2331 2336 2341 2346 2351 2361 2365 2367 2368 2367 2365 2361 2353 2344 2339 2335 2332 2326 2322 2319 2317 2316 2313 2311 2309 2308 2309 2309 2309 2309 2298 2293 2289 2281 2266 2237 2224 2203 2189 2161 2145 2129 2113 2097 2089 2081 2073 2061 2055 2059 2057 2055 2041 2033 2026 2011 2006 2003 2002 2002 2001 2000 1999 1999 2002 2005 2009 2014 2018 2030 2039 2049 2056 2067 2075 2084
1293 1284 1276 1268 1256 1250 1243 1235 1226 1208 1200 1194 1189 1178 1174 1172 1171 1171 1174 1179 1185 1195 1198 1201 1210 1213 1219 1223 1227 1232 1240 1244 1248 1252 1257 1257 1254 1249 1242 1225 1216 1208 1202 1195 1194 1193 1192 1189 1188 1188 1188 1192 1196 1200 1203 1206 1210 1210 1209 1207 1203 1201 1201 1202 1205 1215 1216 1217 1222 1226 1231 1237 1245 1272 1288 1304 1319 1344 1353 1361 1368 1381 1387 1393 1398 1405 1409 1414 1418 1422 1429 1433 1437 1442 1451 1456 1462 1469 1486 1496 1504 1513 1523 1545 1553 1563 1574 1583 1593 1602 1609 1621 1631 1642 1656 1682 1693 1703 1717 1732 1769 1802 1847 1895 1956 1964 1968 1968 1957 1950 1942 1932 1914 1908 1904 1901 1896 1885 1880 1876 1873 1867 1865 1863 1860 1855 1851 1847 1866 1857 1855 1854 1855 1857 1864 1868 1873 1879 1893 1899 1906 1913 1926 1933 1939 1946 1952 1967 1975 1983 1991 2006 2012 2018 2024 2034 2039 2043 2046 2052 2056 2059 2064 2069 2085 2095 2105 2116 2138 2148 2160 2168 2179 2183 2186 2191 2199 2203 2206 2210 2213 2223 2229 2236 2243 2255 2261 2267 2272 2280 2285 2289 2292 2294 2295 2295 2296 2297 2300 2301 2303 2307 2315 2320 2325 2330 2337 2342 2346 2350 2355 2362 2365 2367 2368 2367 2365 2361 2357 2349 2345 2341 2339 2332 2330 2328 2327 2326 2324 2322 2320 2320 2319 2319 2320 2321 2314 2309 2305 2299 2271 2264 2253 2230 2217 2189 2169 2149 2129 2111 2102 2095 2088 2068 2057 2059 2057 2049 2041 2033 2026 2020 2012 2008 2005 2001 1996 1995 1993 1993 1994 1996 1999 2003 2007 2017 2026 2036 2042 2052 2059 2068
1291 1281 1272 1264 1253 1247 1240 1232 1223 1206 1197 1189 1184 1172 1167 1164 1162 1162 1174 1179 1185 1195 1198 1201 1204 1207 1213 1217 1221 1226 1234 1238 1241 1244 1245 1243 1238 1231 1213 1203 1196 1189 1185 1181 1181 1182 1182 1181 1181 1181 1181 1185 1189 1191 1194 1200 1201 1201 1200 1207 1203 1201 1201 1202 1205 1207 1208 1210 1217 1223 1230 1238 1249 1277 1293 1309 1323 1347 1357 1364 1370 1381 1386 1390 1394 1399 1403 1407 1410 1414 1423 1427 1431 1437 1450 1457 1465 1473 1493 1502 1511 1513 1534 1545 1553 1563 1574 1594 1604 1612 1617 1633 1644 1657 1671 1701 1713 1727 1741 1771 1796 1838 1889 1933 1959 1955 1952 1948 1933 1924 1914 1903 1887 1884 1880 1875 1870 1862 1858 1854 1850 1845 1865 1863 1860 1855 1851 1847 1844 1838 1839 1841 1844 1848 1858 1864 1871 1878 1892 1900 1907 1914 1926 1932 1938 1944 1958 1965 1972 1979 1987 2000 2006 2012 2017 2027 2031 2035 2038 2044 2048 2051 2056 2069 2085 2095 2105 2116 2138 2148 2156 2164 2177 2181 2184 2188 2197 2202 2206 2210 2214 2226 2233 2240 2248 2262 2270 2277 2283 2293 2298 2303 2305 2307 2308 2309 2310 2311 2314 2315 2316 2319 2325 2329 2333 2336 2337 2342 2346 2350 2358 2362 2367 2369 2369 2368 2366 2363 2360 2352 2349 2346 2343 2338 2337 2336 2336 2335 2333 2330 2328 2328 2327 2328 2329 2331 2329 2326 2323 2320 2303 2293 2283 2258 2245 2218 2193 2169 2144 2111 2102 2095 2088 2068 2057 2056 2057 2059 2053 2044 2035 2029 2018 2013 2009 2004 1997 1994 1991 1989 1989 1989 1990 1993 2001 2006 2013 2022 2028 2038 2045 2055
1290 1280 1270 1262 1250 1244 1236 1229 1213 1204 1195 1186 1184 1172 1167 1164 1162 1162 1165 1171 1178 1188 1192 1195 1197 1203 1206 1210 1215 1219 1227 1230 1233 1234 1231 1226 1219 1210 1191 1183 1176 1172 1169 1169 1170 1171 1173 1175 1175 1176 1178 1182 1184 1191 1194 1200 1201 1201 1200 1198 1194 1194 1194 1195 1200 1200 1202 1206 1217 1225 1234 1244 1271 1285 1300 1315 1329 1350 1357 1363 1368 1379 1384 1388 1390 1395 1399 1403 1408 1417 1422 1427 1433 1439 1455 1457 1465 1473 1493 1502 1511 1521 1542 1552 1561 1572 1583 1605 1614 1621 1629 1649 1661 1675 1692 1725 1742 1760 1779 1815 1848 1891 1925 1944 1946 1936 1928 1923 1907 1897 1887 1878 1864 1860 1855 1850 1866 1862 1858 1854 1850 1845 1842 1840 1837 1831 1829 1827 1825 1827 1830 1834 1839 1851 1858 1865 1872 1879 1894 1901 1908 1915 1927 1932 1938 1944 1956 1962 1969 1975 1982 1994 2000 2005 2010 2019 2023 2026 2038 2044 2048 2051 2056 2069 2078 2089 2099 2111 2133 2143 2151 2159 2173 2179 2183 2186 2195 2201 2206 2212 2223 2230 2237 2245 2253 2270 2279 2287 2295 2307 2312 2315 2317 2318 2318 2319 2319 2321 2322 2324 2316 2319 2325 2329 2333 2336 2341 2344 2348 2352 2359 2363 2366 2368 2369 2368 2366 2364 2361 2356 2353 2351 2348 2345 2345 2346 2346 2346 2344 2340 2338 2336 2335 2335 2337 2340 2344 2343 2342 2342 2337 2326 2314 2258 2231 2218 2193 2169 2144 2125 2115 2108 2102 2080 2061 2054 2054 2064 2058 2049 2042 2030 2024 2018 2013 2008 1999 1995 1991 1987 1984 1984 1984 1985 1992 1996 2002 2011 2017 2028 2035 2044
1293 1282 1272 1263 1249 1242 1235 1229 1213 1204 1195 1186 1179 1166 1160 1155 1153 1152 1155 1162 1169 1181 1186 1189 1191 1197 1200 1204 1208 1212 1220 1223 1224 1223 1214 1207 1199 1189 1172 1165 1161 1158 1158 1159 1160 1163 1165 1170 1175 1176 1178 1182 1184 1186 1189 1194 1195 1195 1194 1191 1189 1189 1189 1191 1196 1197 1200 1205 1220 1230 1241 1253 1280 1294 1306 1319 1330 1348 1353 1358 1363 1375 1381 1385 1387 1395 1400 1405 1410 1417 1422 1427 1433 1439 1455 1463 1472 1482 1502 1511 1520 1530 1552 1562 1573 1584 1607 1618 1627 1636 1645 1668 1684 1702 1721 1760 1781 1805 1829 1872 1898 1920 1932 1931 1922 1910 1902 1897 1876 1867 1887 1878 1864 1860 1855 1850 1841 1838 1834 1830 1827 1822 1819 1817 1815 1811 1811 1812 1814 1821 1827 1833 1839 1852 1859 1866 1874 1881 1896 1903 1909 1915 1926 1932 1937 1942 1953 1959 1965 1971 1983 1988 2000 2005 2010 2019 2023 2026 2030 2037 2040 2045 2050 2065 2074 2084 2095 2118 2129 2138 2147 2155 2170 2177 2182 2186 2195 2201 2208 2214 2227 2235 2243 2251 2261 2280 2290 2299 2306 2318 2322 2325 2326 2326 2318 2319 2319 2321 2322 2324 2326 2328 2333 2335 2337 2339 2344 2347 2351 2354 2360 2363 2366 2368 2369 2369 2368 2367 2365 2361 2360 2358 2356 2356 2357 2358 2359 2359 2358 2355 2352 2347 2345 2345 2346 2349 2358 2343 2342 2342 2337 2326 2314 2290 2256 2239 2219 2199 2178 2148 2132 2126 2119 2105 2084 2064 2058 2066 2058 2049 2043 2033 2027 2021 2015 2010 2000 1995 1991 1988 1981 1979 1979 1979 1984 1989 1994 2000 2014 2028 2035 2044
1297 1282 1272 1263 1249 1242 1235 1227 1212 1204 1195 1185 1168 1160 1153 1147 1144 1142 1145 1152 1159 1173 1178 1182 1185 1190 1193 1197 1201 1208 1212 1214 1213 1210 1196 1187 1179 1170 1155 1151 1148 1147 1158 1159 1160 1163 1168 1170 1171 1173 1175 1180 1182 1184 1187 1191 1192 1191 1190 1186 1186 1186 1187 1189 1196 1198 1202 1208 1226 1238 1250 1263 1288 1299 1309 1318 1334 1341 1347 1352 1357 1369 1376 1385 1387 1395 1400 1405 1410 1420 1427 1434 1440 1455 1465 1474 1483 1492 1512 1522 1532 1542 1563 1574 1586 1599 1621 1632 1644 1655 1666 1695 1715 1737 1758 1805 1832 1856 1877 1907 1917 1920 1919 1906 1894 1910 1902 1897 1876 1867 1859 1851 1838 1834 1830 1825 1817 1814 1810 1808 1804 1802 1800 1799 1798 1799 1801 1804 1809 1821 1827 1834 1840 1854 1861 1867 1874 1889 1896 1903 1909 1914 1924 1929 1933 1938 1953 1959 1965 1971 1983 1988 1993 1998 2003 2011 2015 2018 2022 2030 2035 2040 2046 2062 2071 2080 2091 2114 2125 2135 2144 2152 2169 2177 2183 2188 2198 2204 2211 2218 2233 2242 2251 2261 2282 2291 2301 2310 2306 2318 2322 2325 2326 2326 2325 2325 2325 2326 2327 2329 2331 2335 2337 2339 2341 2343 2348 2351 2354 2357 2363 2365 2367 2370 2371 2372 2372 2372 2371 2370 2369 2368 2367 2370 2372 2374 2375 2374 2374 2373 2370 2347 2345 2345 2346 2349 2358 2360 2361 2363 2364 2356 2346 2323 2281 2261 2245 2229 2192 2171 2150 2143 2137 2122 2113 2092 2076 2068 2059 2049 2042 2031 2025 2019 2015 2005 2001 1996 1991 1988 1980 1977 1976 1979 1984 1989 1994 2000 2014 2022 2030 2038
1297 1287 1277 1267 1252 1244 1237 1229 1214 1205 1196 1186 1167 1157 1148 1140 1133 1132 1135 1140 1148 1162 1168 1173 1177 1184 1187 1190 1193 1200 1202 1202 1199 1194 1177 1168 1179 1170 1155 1151 1148 1147 1149 1151 1153 1155 1162 1165 1167 1169 1172 1177 1179 1182 1184 1187 1187 1187 1185 1183 1183 1183 1185 1193 1198 1202 1207 1215 1234 1246 1258 1270 1292 1301 1309 1316 1328 1341 1347 1352 1363 1369 1376 1381 1385 1397 1405 1411 1416 1428 1436 1445 1453 1469 1479 1488 1497 1507 1528 1536 1545 1555 1577 1589 1602 1615 1636 1650 1665 1679 1713 1732 1754 1775 1799 1855 1879 1893 1903 1907 1917 1920 1919 1906 1894 1885 1878 1854 1841 1834 1828 1823 1814 1809 1804 1800 1794 1791 1789 1787 1785 1785 1785 1786 1791 1793 1797 1802 1808 1821 1828 1835 1842 1855 1861 1867 1874 1888 1894 1900 1909 1914 1924 1929 1933 1938 1950 1956 1962 1967 1978 1983 1988 1992 2000 2004 2008 2011 2015 2025 2031 2037 2044 2060 2068 2078 2088 2111 2123 2133 2143 2163 2171 2179 2185 2192 2203 2210 2218 2226 2242 2251 2251 2261 2282 2291 2301 2310 2321 2326 2329 2331 2332 2330 2329 2328 2328 2328 2329 2331 2333 2337 2339 2342 2344 2347 2353 2356 2359 2362 2367 2369 2372 2375 2377 2378 2379 2380 2381 2382 2382 2381 2382 2387 2390 2374 2375 2374 2374 2373 2370 2363 2359 2357 2358 2365 2371 2376 2380 2383 2387 2383 2377 2355 2306 2282 2270 2259 2220 2194 2167 2161 2149 2139 2130 2120 2104 2080 2067 2055 2045 2030 2023 2017 2012 2003 2000 1996 1991 1988 1980 1977 1976 1975 1979 1983 1987 1992 2007 2016 2026 2035
1300 1291 1281 1273 1257 1249 1241 1233 1217 1208 1199 1189 1167 1156 1145 1135 1123 1121 1123 1128 1134 1149 1156 1163 1168 1177 1180 1183 1185 1190 1202 1202 1199 1186 1177 1168 1160 1152 1141 1138 1136 1137 1141 1144 1146 1148 1155 1159 1161 1164 1170 1172 1175 1177 1180 1182 1182 1181 1180 1179 1180 1181 1184 1194 1200 1207 1214 1222 1242 1253 1264 1270 1292 1301 1309 1316 1328 1335 1342 1347 1359 1366 1373 1380 1387 1403 1412 1419 1426 1443 1453 1463 1472 1487 1495 1503 1513 1536 1545 1550 1558 1568 1593 1608 1623 1636 1663 1680 1696 1713 1755 1773 1791 1775 1826 1855 1879 1893 1903 1914 1913 1908 1901 1877 1866 1860 1851 1819 1808 1803 1798 1795 1787 1784 1780 1777 1773 1771 1770 1770 1772 1774 1777 1779 1786 1790 1795 1800 1807 1822 1829 1836 1842 1854 1861 1867 1874 1888 1894 1900 1906 1915 1920 1924 1928 1933 1945 1951 1958 1964 1974 1979 1983 1987 1994 1997 2001 2005 2015 2021 2028 2035 2043 2058 2067 2076 2087 2111 2123 2134 2145 2167 2175 2182 2189 2197 2203 2210 2218 2226 2242 2251 2262 2272 2292 2302 2310 2317 2327 2330 2332 2333 2334 2331 2330 2330 2330 2328 2330 2332 2334 2340 2343 2346 2349 2355 2359 2362 2365 2368 2374 2376 2379 2382 2386 2388 2389 2391 2394 2382 2382 2381 2385 2387 2390 2392 2393 2391 2391 2392 2389 2379 2374 2372 2372 2379 2385 2390 2395 2400 2408 2406 2405 2391 2339 2313 2301 2289 2251 2225 2199 2188 2165 2157 2149 2141 2128 2100 2085 2071 2063 2030 2023 2017 2012 2003 2000 1996 1992 1984 1980 1977 1974 1972 1975 1978 1982 1987 2002 2011 2021 2032
1300 1292 1285 1270 1262 1254 1246 1238 1222 1213 1204 1194 1170 1158 1145 1132 1113 1109 1111 1114 1125 1133 1143 1151 1168 1177 1180 1183 1185 1190 1190 1188 1183 1167 1158 1150 1142 1135 1126 1125 1124 1126 1132 1136 1139 1142 1149 1153 1155 1158 1164 1167 1169 1172 1174 1176 1175 1175 1174 1175 1176 1179 1183 1195 1203 1212 1214 1232 1242 1253 1264 1275 1293 1301 1308 1314 1325 1331 1338 1345 1358 1366 1374 1384 1401 1411 1421 1430 1439 1461 1475 1485 1493 1506 1512 1518 1528 1546 1553 1561 1570 1583 1612 1629 1647 1664 1697 1680 1696 1713 1755 1773 1791 1813 1873 1892 1903 1908 1909 1906 1898 1887 1875 1845 1831 1825 1816 1789 1781 1776 1771 1763 1760 1759 1757 1755 1754 1756 1757 1760 1766 1768 1772 1775 1783 1788 1793 1799 1814 1822 1829 1836 1842 1854 1859 1865 1872 1885 1891 1896 1901 1910 1914 1918 1923 1928 1940 1947 1953 1959 1969 1973 1977 1981 1988 1992 1996 2000 2012 2019 2026 2034 2042 2059 2067 2076 2086 2111 2123 2136 2145 2167 2175 2182 2189 2204 2211 2218 2226 2235 2252 2263 2273 2283 2301 2308 2315 2321 2328 2330 2332 2332 2331 2330 2330 2330 2329 2329 2331 2333 2336 2343 2347 2350 2354 2361 2365 2369 2373 2376 2382 2385 2388 2382 2386 2388 2389 2391 2394 2396 2397 2398 2403 2406 2409 2411 2412 2409 2409 2408 2406 2396 2391 2390 2390 2396 2401 2406 2410 2420 2425 2429 2428 2427 2372 2345 2332 2319 2281 2256 2232 2215 2182 2175 2169 2141 2116 2100 2085 2071 2063 2043 2034 2026 2018 2001 1998 1996 1994 1986 1981 1977 1973 1971 1972 1975 1979 1984 1998 2007 2016 2026
1298 1292 1286 1272 1265 1257 1250 1234 1226 1218 1209 1199 1175 1161 1145 1130 1107 1101 1100 1114 1125 1133 1143 1151 1159 1170 1173 1175 1177 1179 1177 1173 1166 1149 1141 1133 1126 1115 1113 1112 1112 1115 1123 1127 1131 1134 1143 1146 1148 1151 1158 1161 1164 1166 1169 1170 1170 1169 1169 1171 1176 1179 1183 1195 1203 1212 1221 1240 1250 1260 1269 1278 1293 1301 1307 1313 1324 1330 1338 1346 1361 1370 1379 1390 1410 1422 1433 1443 1454 1480 1493 1503 1511 1524 1529 1536 1544 1558 1565 1574 1587 1596 1612 1629 1647 1664 1697 1716 1732 1750 1790 1805 1823 1850 1896 1903 1905 1906 1896 1886 1872 1857 1840 1808 1795 1787 1781 1763 1757 1752 1746 1738 1736 1736 1736 1736 1741 1745 1749 1753 1761 1764 1768 1775 1783 1788 1793 1799 1814 1821 1828 1834 1841 1851 1856 1862 1868 1880 1886 1891 1895 1903 1907 1912 1917 1929 1935 1942 1948 1953 1963 1967 1971 1975 1983 1987 1991 1997 2010 2017 2026 2034 2052 2060 2067 2076 2086 2111 2123 2136 2148 2171 2179 2187 2194 2211 2219 2227 2236 2245 2262 2273 2282 2290 2305 2311 2316 2320 2326 2328 2330 2330 2330 2331 2331 2330 2329 2331 2334 2337 2340 2347 2351 2355 2360 2368 2372 2369 2373 2379 2382 2385 2388 2392 2397 2399 2402 2404 2409 2411 2414 2415 2421 2424 2427 2429 2428 2427 2426 2425 2422 2415 2412 2412 2413 2419 2423 2428 2430 2438 2443 2448 2454 2463 2405 2376 2362 2349 2311 2256 2232 2215 2182 2175 2169 2163 2138 2124 2112 2096 2084 2061 2050 2040 2029 2008 2002 1996 1995 1987 1984 1978 1974 1969 1970 1972 1976 1981 1995 2003 2012 2021
1295 1289 1283 1272 1265 1258 1251 1237 1230 1222 1213 1204 1181 1161 1145 1130 1107 1101 1100 1100 1109 1118 1128 1139 1156 1162 1166 1167 1167 1166 1162 1157 1150 1132 1125 1118 1111 1102 1100 1100 1101 1107 1111 1116 1121 1125 1134 1138 1141 1144 1151 1155 1158 1160 1169 1170 1170 1169 1169 1171 1173 1177 1182 1195 1204 1215 1226 1246 1256 1265 1273 1288 1295 1302 1309 1315 1328 1335 1343 1352 1369 1379 1389 1400 1421 1434 1447 1460 1487 1499 1509 1519 1527 1539 1546 1536 1544 1558 1565 1574 1587 1621 1636 1654 1675 1698 1731 1747 1764 1781 1815 1830 1850 1872 1895 1898 1898 1894 1874 1854 1835 1819 1801 1772 1764 1757 1750 1737 1731 1726 1722 1715 1715 1717 1719 1727 1732 1745 1749 1753 1761 1764 1768 1771 1780 1785 1791 1797 1811 1818 1825 1832 1842 1847 1851 1856 1862 1874 1879 1884 1889 1898 1902 1907 1912 1923 1930 1936 1942 1947 1956 1961 1965 1970 1979 1984 1989 1995 2009 2017 2026 2034 2052 2060 2069 2078 2088 2113 2125 2138 2152 2175 2183 2191 2199 2217 2227 2237 2246 2262 2270 2279 2287 2294 2305 2310 2314 2317 2323 2326 2327 2328 2330 2331 2331 2330 2333 2335 2338 2341 2345 2347 2351 2355 2360 2368 2372 2377 2381 2388 2391 2394 2398 2402 2408 2411 2414 2416 2423 2426 2430 2433 2439 2442 2445 2447 2446 2445 2445 2443 2441 2437 2436 2437 2439 2444 2448 2451 2453 2459 2465 2472 2478 2434 2405 2376 2362 2349 2311 2288 2264 2242 2198 2193 2189 2184 2169 2156 2139 2124 2085 2072 2059 2048 2036 2015 2004 2000 1996 1979 1983 1980 1975 1968 1968 1970 1973 1978 1991 1999 2007 2016
1289 1284 1279 1268 1262 1256 1250 1237 1230 1222 1213 1193 1181 1165 1148 1132 1107 1099 1095 1093 1099 1107 1116 1128 1147 1153 1157 1157 1157 1151 1147 1141 1134 1117 1111 1105 1099 1090 1088 1088 1089 1094 1098 1103 1108 1113 1124 1129 1141 1144 1151 1155 1158 1160 1163 1164 1164 1164 1165 1167 1170 1175 1181 1197 1206 1217 1229 1252 1261 1270 1278 1293 1300 1308 1315 1329 1336 1344 1353 1363 1382 1392 1403 1414 1436 1449 1462 1475 1501 1499 1509 1519 1527 1539 1546 1555 1564 1583 1591 1599 1611 1644 1660 1683 1708 1747 1761 1774 1790 1808 1837 1850 1863 1874 1884 1883 1878 1870 1839 1815 1794 1778 1750 1740 1735 1729 1722 1709 1705 1701 1698 1715 1715 1717 1719 1727 1732 1737 1742 1752 1756 1760 1764 1768 1777 1782 1788 1794 1808 1815 1821 1827 1837 1841 1845 1849 1855 1866 1872 1877 1882 1892 1897 1902 1907 1918 1924 1930 1935 1946 1951 1956 1961 1970 1979 1984 1989 1995 2009 2017 2026 2036 2055 2064 2073 2082 2105 2117 2129 2142 2155 2179 2188 2196 2205 2224 2234 2244 2253 2269 2276 2282 2288 2299 2303 2308 2311 2315 2321 2323 2326 2328 2330 2331 2332 2330 2333 2335 2338 2341 2345 2353 2357 2361 2366 2375 2379 2384 2388 2396 2399 2403 2407 2415 2418 2421 2424 2427 2434 2439 2443 2448 2456 2459 2463 2465 2464 2464 2464 2464 2462 2461 2460 2462 2466 2469 2471 2451 2453 2459 2465 2472 2478 2465 2446 2427 2404 2357 2330 2304 2278 2261 2228 2222 2216 2211 2201 2197 2169 2141 2098 2083 2069 2057 2046 2023 2012 2002 1996 1984 1982 1982 1978 1967 1967 1968 1971 1980 1987 1994 2007 2016
1283 1284 1279 1268 1262 1256 1250 1238 1231 1225 1217 1198 1185 1170 1155 1139 1113 1104 1097 1093 1097 1102 1109 1120 1138 1144 1148 1149 1144 1139 1133 1127 1120 1104 1098 1092 1087 1080 1078 1078 1078 1082 1098 1103 1108 1119 1124 1129 1132 1136 1144 1148 1151 1154 1157 1158 1159 1159 1162 1165 1169 1175 1182 1199 1209 1221 1232 1256 1266 1275 1283 1300 1309 1317 1325 1341 1349 1357 1367 1378 1399 1410 1421 1414 1436 1449 1462 1475 1501 1511 1521 1531 1546 1556 1566 1579 1594 1616 1622 1625 1631 1659 1682 1714 1741 1774 1787 1798 1811 1840 1850 1857 1861 1863 1862 1855 1842 1826 1790 1772 1755 1740 1720 1711 1705 1729 1722 1709 1705 1701 1698 1696 1699 1703 1707 1717 1724 1730 1735 1745 1750 1754 1758 1763 1772 1778 1784 1790 1803 1809 1816 1821 1829 1833 1837 1841 1852 1858 1864 1869 1875 1886 1891 1896 1901 1912 1918 1930 1935 1946 1951 1956 1961 1972 1977 1983 1989 1995 2010 2019 2029 2039 2060 2070 2080 2089 2112 2123 2134 2146 2158 2182 2192 2201 2210 2230 2240 2250 2258 2273 2279 2283 2288 2297 2301 2305 2309 2313 2319 2323 2326 2328 2330 2331 2332 2332 2336 2339 2343 2346 2354 2358 2362 2367 2372 2381 2386 2390 2394 2403 2407 2411 2416 2423 2426 2429 2432 2440 2444 2449 2454 2460 2470 2475 2478 2480 2480 2482 2484 2485 2487 2461 2460 2462 2466 2469 2471 2473 2475 2483 2489 2496 2502 2497 2487 2478 2445 2378 2349 2320 2290 2271 2258 2251 2244 2237 2223 2216 2187 2157 2111 2095 2078 2067 2043 2032 2021 2009 2003 1989 1986 1982 1978 1967 1967 1968 1971 1980 1987 1994 2002 2017
1283 1278 1273 1263 1257 1252 1247 1237 1231 1226 1219 1201 1189 1177 1164 1138 1126 1114 1105 1100 1100 1104 1109 1116 1132 1137 1140 1141 1136 1129 1123 1116 1101 1094 1088 1083 1087 1080 1078 1078 1078 1082 1085 1090 1096 1108 1114 1119 1123 1127 1136 1139 1143 1146 1151 1152 1154 1155 1160 1164 1170 1177 1194 1204 1214 1226 1237 1259 1269 1278 1288 1307 1317 1327 1337 1356 1365 1374 1367 1389 1399 1410 1421 1433 1456 1466 1477 1487 1504 1514 1524 1536 1563 1580 1598 1617 1636 1654 1648 1640 1642 1670 1703 1742 1773 1806 1814 1820 1827 1845 1851 1852 1848 1841 1820 1809 1793 1773 1742 1772 1755 1740 1720 1711 1705 1699 1686 1682 1679 1677 1677 1682 1687 1692 1697 1709 1715 1722 1727 1738 1742 1747 1752 1762 1767 1773 1779 1784 1796 1802 1807 1812 1820 1824 1828 1832 1844 1850 1856 1862 1868 1886 1891 1896 1901 1912 1918 1924 1930 1941 1947 1953 1959 1972 1978 1985 1991 1998 2014 2024 2034 2045 2067 2078 2089 2098 2120 2130 2140 2151 2174 2185 2196 2206 2215 2235 2245 2254 2262 2276 2281 2285 2289 2297 2301 2305 2309 2316 2319 2323 2326 2328 2330 2332 2333 2335 2340 2343 2347 2351 2359 2363 2367 2372 2376 2386 2390 2395 2400 2409 2413 2417 2423 2429 2432 2435 2438 2447 2452 2458 2464 2470 2482 2488 2491 2480 2480 2482 2484 2485 2487 2487 2487 2489 2494 2493 2494 2496 2498 2506 2512 2518 2522 2514 2513 2490 2486 2400 2368 2337 2301 2282 2292 2282 2272 2264 2245 2236 2205 2173 2124 2106 2088 2076 2052 2040 2029 2017 2003 1989 1986 1982 1978 1967 1965 1966 1968 1976 1982 1988 1995 2009
1277 1272 1263 1258 1254 1249 1245 1235 1229 1224 1219 1203 1194 1185 1176 1154 1141 1129 1119 1111 1108 1110 1113 1117 1126 1130 1133 1132 1125 1119 1112 1116 1101 1094 1088 1083 1078 1072 1070 1069 1069 1072 1075 1080 1085 1099 1105 1110 1114 1122 1126 1130 1134 1137 1144 1147 1149 1153 1160 1166 1173 1181 1199 1210 1221 1233 1253 1264 1275 1284 1294 1315 1317 1327 1337 1356 1365 1374 1383 1406 1417 1428 1441 1453 1475 1483 1489 1493 1503 1513 1529 1548 1594 1620 1645 1670 1704 1695 1675 1658 1656 1689 1728 1772 1807 1839 1841 1843 1843 1844 1844 1841 1829 1830 1820 1809 1793 1773 1742 1730 1720 1709 1691 1683 1676 1669 1659 1657 1657 1659 1663 1673 1678 1684 1689 1701 1707 1713 1718 1729 1734 1739 1745 1756 1761 1766 1771 1776 1786 1791 1796 1800 1809 1814 1819 1832 1844 1850 1856 1862 1874 1879 1884 1889 1894 1906 1912 1919 1926 1939 1945 1952 1959 1973 1980 1988 1995 2012 2020 2030 2041 2053 2076 2088 2099 2108 2128 2137 2146 2156 2178 2189 2200 2211 2220 2240 2249 2254 2262 2276 2281 2285 2289 2296 2300 2304 2308 2316 2320 2323 2325 2327 2330 2333 2335 2336 2342 2346 2350 2354 2363 2367 2371 2376 2385 2390 2394 2399 2404 2413 2418 2423 2428 2434 2437 2440 2444 2453 2460 2458 2464 2476 2482 2488 2491 2492 2494 2497 2501 2506 2511 2513 2515 2517 2522 2521 2521 2522 2523 2527 2530 2533 2535 2522 2517 2512 2479 2413 2384 2341 2303 2308 2316 2312 2293 2278 2257 2253 2230 2207 2162 2141 2088 2076 2052 2040 2029 2017 2002 1994 1989 1984 1979 1968 1965 1965 1966 1972 1977 1982 1988 2000
1273 1268 1259 1255 1251 1247 1243 1232 1226 1221 1216 1203 1197 1192 1186 1167 1155 1143 1132 1116 1113 1114 1115 1116 1118 1130 1133 1132 1125 1119 1112 1106 1092 1086 1081 1076 1069 1066 1064 1063 1062 1064 1067 1071 1077 1090 1096 1101 1105 1113 1117 1120 1124 1129 1138 1142 1147 1152 1163 1170 1178 1188 1205 1216 1228 1241 1253 1264 1275 1284 1294 1315 1325 1336 1348 1371 1381 1390 1399 1422 1434 1446 1460 1487 1496 1498 1496 1494 1504 1520 1544 1572 1639 1674 1704 1729 1748 1728 1703 1686 1697 1725 1765 1813 1850 1866 1864 1843 1843 1844 1844 1841 1829 1781 1766 1755 1742 1728 1705 1697 1691 1683 1664 1656 1649 1644 1639 1640 1643 1648 1660 1666 1671 1676 1682 1693 1698 1703 1708 1719 1725 1731 1737 1748 1752 1757 1761 1769 1774 1791 1796 1800 1809 1814 1819 1824 1836 1843 1849 1855 1866 1871 1877 1882 1888 1901 1909 1916 1924 1939 1946 1953 1960 1976 1984 1992 2000 2019 2028 2039 2050 2062 2086 2098 2108 2118 2136 2144 2153 2162 2184 2189 2200 2211 2230 2240 2249 2257 2265 2278 2284 2288 2292 2299 2302 2306 2310 2317 2321 2323 2325 2328 2330 2333 2335 2337 2343 2347 2351 2356 2365 2369 2374 2379 2389 2393 2398 2403 2407 2417 2422 2427 2432 2434 2437 2440 2444 2453 2460 2467 2473 2485 2492 2498 2501 2503 2508 2513 2519 2527 2535 2538 2542 2546 2551 2551 2551 2549 2545 2543 2542 2540 2535 2516 2506 2495 2472 2426 2385 2347 2322 2323 2325 2318 2307 2269 2257 2253 2230 2207 2162 2141 2120 2101 2064 2052 2040 2028 2011 2003 1997 1991 1984 1971 1967 1965 1964 1968 1971 1975 1980 1990
1270 1266 1258 1254 1250 1246 1236 1230 1224 1219 1213 1202 1198 1194 1190 1174 1164 1153 1141 1116 1113 1114 1115 1116 1118 1120 1120 1119 1111 1107 1102 1097 1085 1080 1075 1071 1064 1061 1059 1057 1057 1058 1061 1065 1070 1083 1088 1092 1097 1105 1109 1112 1117 1128 1134 1140 1147 1153 1168 1176 1178 1188 1205 1216 1228 1241 1262 1273 1284 1293 1313 1323 1334 1345 1358 1382 1393 1403 1413 1438 1452 1467 1483 1510 1515 1514 1507 1502 1520 1541 1570 1605 1693 1734 1764 1784 1779 1754 1730 1718 1730 1725 1765 1813 1850 1866 1864 1863 1859 1842 1836 1826 1798 1738 1726 1717 1707 1685 1676 1670 1665 1657 1639 1632 1628 1625 1626 1629 1634 1640 1653 1658 1664 1669 1679 1684 1688 1693 1698 1709 1716 1722 1728 1748 1752 1757 1761 1769 1774 1778 1783 1788 1799 1805 1811 1818 1830 1836 1842 1848 1859 1865 1870 1876 1891 1899 1907 1916 1924 1940 1948 1955 1963 1979 1988 1997 2007 2027 2037 2049 2060 2084 2095 2107 2117 2118 2136 2144 2153 2162 2184 2194 2204 2214 2235 2244 2252 2260 2267 2281 2286 2291 2295 2302 2305 2309 2312 2319 2321 2323 2324 2328 2330 2332 2335 2337 2343 2347 2352 2357 2367 2372 2377 2382 2392 2396 2401 2403 2412 2417 2422 2427 2432 2438 2441 2445 2448 2459 2467 2474 2480 2494 2501 2507 2512 2520 2525 2531 2540 2548 2556 2562 2568 2573 2579 2580 2578 2575 2562 2559 2556 2546 2536 2510 2494 2478 2465 2415 2392 2347 2322 2323 2325 2318 2307 2274 2263 2250 2255 2240 2201 2176 2151 2126 2075 2063 2052 2040 2021 2012 2005 1997 1984 1978 1972 1968 1965 1964 1966 1969 1973 1980
1270 1266 1258 1254 1250 1246 1235 1229 1223 1218 1212 1201 1196 1194 1190 1174 1164 1153 1141 1123 1117 1115 1114 1106 1104 1104 1103 1102 1099 1097 1093 1089 1079 1075 1070 1067 1059 1056 1054 1052 1052 1054 1057 1060 1065 1076 1081 1086 1091 1100 1104 1108 1113 1126 1134 1140 1147 1153 1168 1176 1186 1195 1214 1224 1236 1250 1275 1286 1296 1304 1323 1334 1345 1356 1368 1393 1404 1416 1424 1450 1470 1489 1506 1526 1529 1529 1528 1535 1553 1586 1619 1658 1762 1796 1819 1835 1779 1754 1730 1718 1730 1759 1801 1853 1890 1884 1881 1876 1868 1839 1828 1803 1760 1712 1703 1693 1682 1659 1651 1645 1638 1630 1615 1611 1609 1610 1616 1621 1628 1634 1645 1650 1656 1661 1670 1674 1678 1693 1698 1709 1716 1722 1728 1738 1741 1745 1748 1755 1759 1765 1770 1783 1790 1797 1805 1812 1825 1831 1837 1843 1854 1860 1867 1874 1890 1900 1909 1919 1937 1945 1952 1960 1968 1985 1994 2004 2014 2036 2047 2049 2060 2084 2095 2107 2117 2126 2144 2152 2161 2170 2190 2200 2209 2218 2238 2247 2255 2262 2277 2283 2289 2294 2298 2305 2308 2311 2315 2321 2322 2324 2325 2329 2331 2333 2335 2340 2343 2348 2353 2358 2369 2372 2377 2382 2392 2396 2401 2406 2416 2420 2426 2431 2439 2442 2445 2449 2453 2465 2473 2480 2487 2503 2511 2519 2525 2538 2545 2553 2563 2569 2577 2584 2590 2594 2602 2603 2601 2589 2562 2548 2534 2525 2505 2510 2494 2478 2465 2415 2392 2361 2339 2326 2326 2319 2308 2273 2254 2243 2242 2230 2239 2211 2183 2151 2087 2075 2063 2051 2031 2021 2012 2004 1991 1986 1978 1973 1969 1963 1963 1964 1966 1971
1272 1268 1259 1254 1250 1246 1234 1229 1223 1218 1206 1201 1196 1191 1187 1176 1168 1159 1148 1128 1120 1115 1109 1093 1088 1086 1086 1087 1088 1087 1086 1083 1075 1070 1066 1062 1054 1051 1049 1048 1049 1051 1053 1056 1060 1071 1076 1081 1091 1100 1104 1108 1113 1126 1133 1141 1149 1166 1175 1184 1194 1204 1225 1235 1247 1261 1290 1302 1310 1317 1337 1348 1359 1370 1395 1407 1418 1426 1431 1458 1482 1504 1522 1538 1539 1544 1552 1574 1599 1654 1619 1658 1762 1796 1819 1835 1819 1797 1775 1759 1761 1794 1841 1886 1906 1898 1892 1883 1870 1827 1809 1774 1730 1693 1680 1668 1656 1635 1627 1619 1611 1597 1593 1592 1594 1597 1609 1616 1623 1628 1637 1650 1656 1661 1670 1674 1678 1682 1693 1699 1705 1711 1717 1725 1727 1730 1733 1740 1746 1752 1759 1775 1783 1791 1800 1807 1821 1827 1833 1839 1851 1858 1866 1874 1893 1904 1915 1925 1943 1951 1958 1966 1974 1985 1994 2004 2014 2036 2047 2059 2070 2093 2104 2114 2124 2143 2151 2159 2168 2177 2195 2204 2212 2221 2241 2250 2257 2264 2279 2286 2292 2296 2304 2308 2311 2314 2317 2322 2324 2326 2328 2332 2333 2335 2337 2340 2343 2348 2353 2358 2369 2374 2379 2385 2395 2400 2405 2409 2419 2424 2430 2435 2442 2446 2450 2454 2459 2472 2479 2486 2494 2512 2522 2532 2541 2558 2567 2576 2583 2593 2597 2602 2607 2610 2617 2617 2614 2589 2562 2548 2534 2525 2505 2486 2466 2446 2424 2406 2384 2370 2349 2324 2319 2311 2300 2267 2249 2239 2237 2232 2224 2213 2193 2165 2107 2092 2076 2060 2038 2028 2019 2011 1997 1991 1985 1978 1967 1964 1963 1963 1966 1971
1274 1269 1259 1254 1250 1246 1234 1229 1223 1217 1206 1200 1194 1187 1182 1173 1166 1158 1149 1129 1120 1113 1104 1082 1075 1072 1072 1076 1077 1078 1078 1076 1070 1066 1061 1057 1049 1046 1045 1044 1046 1048 1050 1056 1066 1071 1076 1081 1086 1097 1102 1107 1113 1128 1136 1145 1154 1174 1183 1193 1204 1226 1238 1249 1261 1275 1306 1318 1325 1332 1353 1365 1376 1388 1416 1426 1435 1439 1452 1471 1500 1521 1557 1554 1539 1544 1552 1574 1599 1654 1707 1791 1829 1849 1865 1878 1872 1873 1868 1848 1835 1865 1899 1918 1912 1903 1894 1877 1825 1805 1782 1742 1707 1671 1656 1643 1631 1609 1601 1593 1584 1574 1573 1575 1580 1597 1609 1616 1623 1628 1637 1642 1647 1652 1660 1663 1667 1671 1680 1686 1691 1696 1701 1708 1711 1714 1718 1728 1735 1743 1751 1768 1777 1786 1795 1810 1817 1824 1831 1838 1852 1859 1867 1876 1898 1911 1923 1925 1943 1951 1958 1966 1983 1992 2002 2012 2022 2045 2056 2068 2079 2101 2111 2121 2130 2149 2157 2164 2172 2181 2199 2207 2215 2224 2244 2253 2260 2267 2282 2288 2294 2298 2306 2310 2313 2316 2319 2324 2327 2326 2328 2332 2333 2335 2337 2342 2345 2350 2355 2366 2372 2377 2382 2388 2398 2403 2408 2413 2424 2429 2435 2440 2447 2451 2455 2460 2472 2479 2486 2494 2502 2522 2533 2544 2555 2575 2585 2593 2599 2609 2613 2602 2607 2610 2617 2617 2614 2600 2562 2537 2513 2503 2485 2461 2438 2415 2396 2387 2371 2356 2347 2318 2308 2297 2285 2261 2248 2240 2234 2224 2221 2210 2204 2153 2128 2108 2089 2069 2046 2034 2026 2018 2003 1996 1985 1978 1967 1964 1963 1963 1962 1961
1274 1269 1260 1255 1250 1244 1233 1228 1222 1216 1204 1198 1191 1184 1173 1166 1160 1153 1145 1128 1118 1108 1098 1077 1069 1063 1062 1066 1068 1069 1069 1066 1063 1059 1055 1051 1044 1046 1045 1044 1046 1048 1050 1053 1062 1067 1072 1077 1083 1096 1103 1109 1117 1133 1142 1152 1162 1183 1194 1205 1217 1241 1252 1264 1277 1292 1323 1333 1340 1347 1372 1385 1398 1411 1437 1449 1462 1477 1461 1471 1500 1521 1557 1554 1566 1571 1592 1656 1689 1747 1806 1861 1879 1893 1907 1920 1931 1955 1966 1957 1946 1952 1954 1927 1899 1884 1872 1848 1795 1781 1754 1715 1686 1647 1632 1620 1608 1586 1577 1593 1584 1574 1573 1575 1580 1594 1602 1611 1617 1622 1630 1635 1639 1643 1649 1652 1655 1658 1665 1669 1673 1678 1685 1689 1693 1698 1704 1719 1727 1736 1746 1764 1773 1783 1792 1808 1816 1823 1831 1839 1854 1859 1867 1876 1898 1911 1923 1934 1952 1959 1966 1973 1990 2000 2010 2020 2030 2052 2064 2075 2086 2106 2116 2125 2135 2153 2161 2169 2177 2193 2202 2210 2218 2227 2246 2255 2262 2269 2284 2291 2296 2301 2308 2310 2313 2316 2322 2324 2327 2329 2332 2337 2338 2340 2342 2346 2349 2354 2359 2370 2375 2381 2386 2392 2402 2408 2413 2419 2431 2437 2444 2449 2455 2459 2464 2469 2480 2488 2495 2503 2512 2533 2545 2557 2567 2575 2585 2593 2599 2609 2613 2616 2618 2624 2626 2623 2617 2603 2562 2526 2491 2482 2464 2437 2410 2383 2368 2361 2349 2336 2320 2307 2295 2283 2272 2252 2242 2234 2226 2212 2209 2206 2197 2170 2148 2125 2101 2078 2046 2034 2026 2018 2003 1996 1988 1981 1966 1963 1961 1959 1957 1953
1275 1266 1261 1255 1249 1243 1233 1228 1222 1215 1202 1195 1189 1183 1171 1164 1157 1149 1133 1126 1117 1106 1095 1074 1064 1057 1054 1057 1059 1060 1060 1066 1063 1059 1055 1051 1044 1042 1041 1041 1044 1046 1048 1051 1060 1065 1070 1076 1090 1098 1106 1114 1123 1141 1151 1161 1172 1194 1206 1218 1232 1258 1271 1283 1296 1325 1340 1351 1358 1366 1394 1408 1398 1411 1437 1449 1462 1477 1500 1508 1534 1555 1563 1585 1605 1628 1661 1774 1809 1839 1873 1908 1919 1935 1950 1970 1985 2002 2008 2006 1966 1955 1945 1945 1872 1846 1833 1812 1774 1761 1729 1693 1646 1627 1632 1620 1608 1586 1577 1568 1560 1554 1555 1559 1566 1584 1595 1604 1611 1620 1624 1627 1630 1632 1636 1638 1640 1642 1646 1650 1653 1657 1667 1673 1679 1687 1695 1713 1723 1732 1742 1761 1771 1781 1790 1808 1816 1823 1831 1847 1854 1862 1872 1882 1907 1920 1933 1945 1962 1968 1975 1982 1998 2007 2018 2028 2048 2059 2069 2080 2091 2111 2120 2129 2138 2157 2166 2174 2181 2197 2205 2213 2222 2230 2249 2258 2265 2269 2284 2291 2296 2301 2308 2312 2315 2317 2324 2327 2330 2333 2337 2342 2345 2347 2349 2353 2356 2360 2366 2376 2381 2386 2391 2403 2408 2414 2420 2427 2442 2449 2456 2460 2468 2472 2477 2481 2492 2498 2506 2503 2522 2533 2545 2557 2567 2586 2596 2604 2610 2620 2623 2625 2625 2628 2627 2621 2612 2598 2548 2512 2476 2467 2447 2420 2393 2367 2350 2342 2331 2321 2306 2293 2281 2270 2259 2240 2231 2222 2213 2201 2197 2194 2197 2170 2148 2125 2101 2066 2053 2041 2033 2026 2009 2000 1991 1982 1965 1960 1954 1949 1952 1948
